# .PCD v0.7 - Point Cloud Data file format
VERSION 0.7
FIELDS x y z
SIZE 4 4 4
TYPE F F F
COUNT 1 1 1
WIDTH 741
HEIGHT 1
VIEWPOINT 0 0 0 1 0 0 0
POINTS 741
DATA ascii
0.21588926 0.21576555 0.98964423
0.2177971 0.20819539 0.99575007
0.20189361 0.21733443 0.99142241
0.22453173 0.21844618 0.99016666
0.1776074 0.2231029 0.99800003
0.18859933 0.22060494 0.99562484
0.13115808 0.23728235 0.99457151
0.14252988 0.23559147 0.99354863
0.15741245 0.23302861 0.99488878
0.17132768 0.23097625 0.99354088
0.18610831 0.23044816 0.9920373
0.20120032 0.23110805 0.99147874
0.21588039 0.23113558 0.99141526
0.22723074 0.23235753 0.99264729
0.11247573 0.24799083 0.99480921
0.12638631 0.24600083 0.9934631
0.14168902 0.2460033 0.99155509
0.15686239 0.24575822 0.99406266
0.17093064 0.24592979 0.99476546
0.1858661 0.2460791 0.9953751
0.20114051 0.24599063 0.99580586
0.21581779 0.24598469 0.99734992
0.22886039 0.24415725 0.99799967
0.088366248 0.25284997 0.99800003
0.099858977 0.25075388 0.99607992
0.17120238 0.25958514 0.99800026
0.18617553 0.25659096 0.99799973
0.20041765 0.25703701 0.99799973
0.21483098 0.25571331 0.99800009
0.22695251 0.25529972 0.99800003
0.052922383 0.26635116 0.99465358
0.067101941 0.26366279 0.99551904
0.082537435 0.26163298 0.99532789
0.096469983 0.26066846 0.99342304
0.11163195 0.26126772 0.99375349
0.12645988 0.26153049 0.99407035
0.1408816 0.26078469 0.99352515
0.15564536 0.26463884 0.99776936
0.024108218 0.27736667 0.99130434
0.03753737 0.27519867 0.9907555
0.051968984 0.27541271 0.99065638
0.06682805 0.27558351 0.99330252
0.081987165 0.2756162 0.99490601
0.09685003 0.27571404 0.99524987
0.11169846 0.27517566 0.99669069
0.12626268 0.27363443 0.9969334
0.14075717 0.27189288 0.99775994
0.02410117 0.28975073 0.99378598
0.037313022 0.28993639 0.99458647
0.06628304 0.28778088 0.99624991
0.080161154 0.28668305 0.99749988
0.097433522 0.28482404 0.99800009
0.051678643 0.29456645 0.9967106
0.044620581 0.30009526 0.99800003
0.21367091 0.20756704 1.0055537
0.17286627 0.21986234 1.0093021
0.18590733 0.21606976 1.0074762
0.19943643 0.21098121 1.0069999
0.15554149 0.22662918 1.0059229
0.16995446 0.22474976 1.0027499
0.12473819 0.23716974 1.0058317
0.14234675 0.23067337 1.0068868
0.096708745 0.24691482 1.0059373
0.11051086 0.24117711 1.005147
0.23299205 0.24955457 1.0012609
0.067131028 0.25673103 1.0050716
0.079399094 0.25511983 1.0037692
0.083141707 0.25120738 1.0098752
0.22026338 0.2509774 1.001
0.03710888 0.26712573 1.0055001
0.052059669 0.26095039 1.005373
0.15708026 0.26633441 1.001
0.17141347 0.2669194 1.0010002
0.18656676 0.26388186 1.0021613
0.20108491 0.26360041 1.001931
0.21630862 0.26117057 1.0022
0.23495628 0.26125574 1.0048305
0.021472931 0.27230188 1.0080408
0.14261991 0.27837363 1.0018461
0.15662448 0.27599838 1.0040001
0.17101867 0.27500793 1.0031865
0.18638907 0.27559 1.006515
0.20136508 0.27555633 1.0074216
0.21593922 0.2753337 1.0077165
0.23114632 0.27509549 1.0097854
0.11320309 0.2816914 1.001
0.12724379 0.28075537 1.0010002
0.18582878 0.2899875 1.0098546
0.022523612 0.29690215 1.001
0.039840467 0.29713616 1.001
0.058795404 0.2974872 1.001
0.068183377 0.29439947 1.00172
0.083366379 0.29320198 1.0028
0.096407279 0.29216331 1.0028001
0.11184981 0.29035297 1.0030143
0.12690973 0.29084164 1.0053128
0.14170195 0.29044649 1.0039588
0.15731284 0.29009274 1.0080779
0.17180926 0.29003868 1.009606
0.025193078 0.30421519 1.0022162
0.036887269 0.30563197 1.0017967
0.052220929 0.30702251 1.0028002
0.06707523 0.30532736 1.0044502
0.082007885 0.30511457 1.0058755
0.097063825 0.30531237 1.0065315
0.1117275 0.30471957 1.006677
0.12730405 0.30543193 1.0095261
0.14084211 0.30389041 1.0089536
0.027597908 0.31687844 1.0091
0.066631168 0.31985494 1.0098332
0.036974274 0.32035425 1.0062633
0.052100517 0.32055441 1.0072858
0.2057243 0.20749782 1.0115
0.13919659 0.22620723 1.0183002
0.1549184 0.22391281 1.0164286
0.16259472 0.2228502 1.0107501
0.10718853 0.23949029 1.0177144
0.11699029 0.23752932 1.011
0.065216549 0.25326645 1.0151
0.01603248 0.26988009 1.016
0.02397771 0.26730707 1.013
0.012849936 0.27292657 1.0148333
0.24141495 0.27574819 1.0128336
0.20068741 0.28816435 1.0106816
0.2150234 0.28741631 1.0116878
0.22971238 0.28388426 1.0130001
0.24263021 0.28187332 1.0175
0.17012243 0.29660088 1.016
0.18205298 0.29927734 1.013
0.20214581 0.29596254 1.0164285
0.21718396 0.29503173 1.0177503
0.23083638 0.29211509 1.0178827
0.15648012 0.30597264 1.0138745
0.16860516 0.30003852 1.013
0.17176524 0.30635908 1.0180196
0.18639348 0.30638319 1.018891
0.081981704 0.31917384 1.0105094
0.096418224 0.31860384 1.0110669
0.11054824 0.31592625 1.0128503
0.12410685 0.31393039 1.013
0.14477192 0.31153715 1.0159999
0.076065212 0.32626098 1.016
0.09853296 0.32599384 1.0159999
0.11331295 0.32237011 1.0167944
0.1269684 0.32097349 1.0172504
0.141286 0.32024395 1.0180173
0.038438313 0.33492464 1.0141113
0.052167848 0.33243954 1.0118574
0.065989375 0.33342662 1.0157908
0.051293459 0.34008762 1.0159999
0.19056261 0.20726839 1.0244
0.20142056 0.20485717 1.0213846
0.21432967 0.20101827 1.0217431
0.1562698 0.21958934 1.0224185
0.16983251 0.21626396 1.022
0.18540312 0.21104351 1.0212106
0.12631898 0.22863674 1.0206609
0.13067593 0.22259969 1.028
0.1433619 0.22139309 1.0246086
0.099415436 0.23677056 1.0269285
0.11260818 0.23394385 1.0226347
0.067110375 0.24906147 1.0231086
0.08242128 0.24634495 1.0221838
0.095697209 0.24209499 1.0216342
0.037198789 0.25975019 1.0222354
0.042357028 0.25324094 1.028
0.052451428 0.25390592 1.0242515
0.012562196 0.26648346 1.0235001
0.02315324 0.26421311 1.0221249
0.244129 0.2908304 1.0216429
0.20072551 0.30578953 1.0204532
0.2159797 0.30560148 1.0222543
0.23091479 0.30576777 1.0233395
0.24447383 0.30364642 1.0260835
0.17100397 0.31999013 1.0227116
0.21488035 0.31764331 1.02675
0.22695558 0.3163259 1.028
0.15604165 0.32006302 1.0204728
0.18401487 0.32522285 1.0260346
0.19376087 0.32894287 1.028
0.20091844 0.32020611 1.026041
0.082062252 0.33521351 1.0203333
0.096776687 0.33546564 1.0206846
0.111472 0.33492523 1.022458
0.12670849 0.33496088 1.0241501
0.14181769 0.33522338 1.0248423
0.156192 0.3338511 1.0262246
0.17080373 0.33234721 1.0272306
0.039826117 0.34844506 1.0212259
0.066273138 0.34916481 1.02482
0.082010418 0.34843147 1.028
0.097189225 0.34887746 1.0274285
0.11100084 0.3472991 1.0273635
0.12591752 0.3455973 1.028
0.1394878 0.34376284 1.028
0.15230505 0.34336224 1.028
0.05193365 0.35010669 1.0213573
0.042111244 0.36302516 1.028
0.051831767 0.36150229 1.0275384
0.06548816 0.36253801 1.028
0.21311434 0.19438083 1.0365715
0.17574118 0.20654789 1.0379287
0.18635768 0.2045272 1.0364168
0.20097379 0.20058706 1.0368423
0.14205179 0.21791466 1.0370502
0.15640014 0.21336785 1.0357254
0.1704727 0.21132186 1.0340589
0.18226716 0.21029469 1.0313001
0.11146444 0.22831966 1.035706
0.12460203 0.22464593 1.0374668
0.13168147 0.22183804 1.0388
0.084222384 0.23719998 1.0386667
0.09705203 0.23404482 1.0362164
0.052437954 0.24833182 1.0366216
0.067372598 0.24319422 1.0367029
0.080772117 0.2411968 1.0331252
0.037062921 0.25339794 1.035987
0.012639099 0.26381576 1.0381112
0.021452991 0.26019186 1.036788
0.24699986 0.31539145 1.0324807
0.20426859 0.32628745 1.031
0.21851487 0.32439363 1.031
0.232411 0.32185033 1.0309995
0.2575272 0.32369515 1.0391581
0.18699098 0.33636752 1.0318748
0.20130615 0.33535433 1.0326502
0.21531758 0.33469111 1.0331167
0.23026477 0.33452854 1.0341071
0.24529515 0.33479673 1.0382783
0.15982965 0.34120092 1.031
0.17195623 0.34029698 1.031
0.21532291 0.34957409 1.0390838
0.072126701 0.35557196 1.031
0.082249753 0.35549578 1.031
0.097873323 0.35611421 1.031
0.11332802 0.35416749 1.031
0.12670028 0.35331008 1.0309997
0.14108817 0.3509925 1.0309993
0.15588813 0.3502498 1.0323597
0.1714996 0.35036084 1.0359216
0.18627225 0.35021856 1.0378118
0.20101358 0.35038176 1.03819
0.052462358 0.36858508 1.0317501
0.068700746 0.36647794 1.0311251
0.081300035 0.3648645 1.0339038
0.09659037 0.36498749 1.033583
0.11152714 0.36547372 1.0363005
0.12629344 0.36527079 1.0364403
0.14187571 0.36529621 1.0377823
0.15607342 0.36371109 1.0377455
0.044378534 0.37451059 1.0331001
0.052846443 0.37994224 1.0375006
0.06722261 0.37922084 1.0361733
0.096390098 0.3797479 1.0399235
0.18633506 0.19877285 1.0483848
0.19963734 0.19625936 1.04752
0.20958996 0.19494613 1.044
0.15522704 0.20967653 1.0458461
0.16565844 0.20958996 1.044
0.17133231 0.20375548 1.05
0.12658094 0.21795307 1.0498127
0.14058551 0.21286289 1.0488464
0.10940745 0.22515264 1.0469474
0.12081169 0.22423379 1.044
0.064908199 0.23970403 1.0451539
0.073117942 0.23853442 1.0425
0.051902052 0.24330321 1.049907
0.0093932524 0.25895908 1.0496843
0.020743906 0.25606221 1.0485359
0.030842008 0.25437447 1.0450001
0.25766671 0.33588725 1.0423636
0.23094575 0.34579071 1.0403079
0.24176478 0.34576899 1.0406667
0.25169098 0.3404693 1.044
0.19803636 0.35865572 1.041
0.22179316 0.35541821 1.044
0.23069768 0.3532255 1.0440001
0.24670555 0.35177791 1.0452667
0.25876081 0.35096368 1.0466005
0.17181116 0.36464137 1.0424467
0.18595758 0.36336875 1.0427501
0.20177466 0.36599064 1.0450963
0.2164052 0.36489338 1.044885
0.23087357 0.36459035 1.0461503
0.24634638 0.36491689 1.0485001
0.08241576 0.37975577 1.0404071
0.11026132 0.37783611 1.0408381
0.12660104 0.37577501 1.0410002
0.14155886 0.37623009 1.0410002
0.15296747 0.37550387 1.0410001
0.16199748 0.37021458 1.044
0.17095871 0.37971124 1.0461583
0.18607695 0.37913471 1.0476506
0.20141082 0.37938225 1.0477371
0.2158713 0.37967443 1.0499152
0.065275624 0.38997272 1.0410001
0.077795401 0.3871465 1.044
0.083047509 0.38785926 1.041
0.092173606 0.38785926 1.041
0.10021877 0.3871465 1.044
0.11387112 0.38424835 1.0440001
0.12575398 0.38395625 1.044
0.14086375 0.38392934 1.0440001
0.15754734 0.38090864 1.0447057
0.054037783 0.39476329 1.0426393
0.068203293 0.39681938 1.0456219
0.08219216 0.39554349 1.0458752
0.097320236 0.39548233 1.0464
0.11178496 0.39491853 1.0451784
0.12653105 0.39518258 1.045875
0.14100936 0.39501107 1.0465382
0.15674593 0.3952606 1.0498271
0.055822164 0.40769345 1.0492632
0.19366707 0.19366707 1.057
0.20352222 0.19227313 1.0539999
0.21189111 0.19018987 1.0512307
0.14619951 0.20773405 1.0555
0.1565202 0.2067235 1.0532595
0.096940167 0.22893396 1.050244
0.10090608 0.22310817 1.0560001
0.11362042 0.22079138 1.0526335
0.056469608 0.23792033 1.0560001
0.067643411 0.23603056 1.0508571
0.082056366 0.2339258 1.0512223
0.037657823 0.24822012 1.0506001
0.01389955 0.2529718 1.057
0.023318948 0.25120631 1.0539602
0.26064157 0.36543968 1.0504113
0.24556099 0.37878934 1.0528111
0.26071036 0.37927145 1.054846
0.27266645 0.37360126 1.0566251
0.23154177 0.38018715 1.0536457
0.17148104 0.39420679 1.0523864
0.18622059 0.3951467 1.0549649
0.2014856 0.394898 1.0550941
0.21674426 0.39469329 1.0567497
0.23105866 0.39484799 1.0584998
0.24467236 0.3909198 1.0569998
0.11213043 0.40971139 1.0522
0.12705095 0.40958577 1.0527337
0.14217605 0.40971699 1.0540395
0.17036878 0.40511671 1.0569998
0.18617676 0.404863 1.0569998
0.20319818 0.40361643 1.057
0.21331176 0.40382823 1.057
0.058212418 0.41857502 1.054
0.066455923 0.41023096 1.050593
0.081470706 0.41039035 1.0523624
0.09633407 0.41023305 1.0526228
0.13992214 0.41967809 1.0569998
0.15571769 0.41016802 1.0559025
0.17140746 0.4123973 1.0599999
0.18548726 0.41239724 1.0599999
0.066877328 0.42369795 1.0549142
0.081559889 0.42471305 1.0566735
0.096285969 0.42240596 1.0569997
0.11205479 0.42157865 1.0567853
0.12681502 0.42395115 1.0569314
0.15536608 0.4207274 1.0569997
0.20859495 0.17866203 1.067
0.20180939 0.1865156 1.0639576
0.21153504 0.18480909 1.0618824
0.17049995 0.19797601 1.064525
0.18717632 0.19307497 1.0656053
0.13376267 0.20859495 1.067
0.14243819 0.20580426 1.0670999
0.15677029 0.20099774 1.0647857
0.11195058 0.21646544 1.0650791
0.12656733 0.21176362 1.0652647
0.13795841 0.21007784 1.0615001
0.082242556 0.22794639 1.065081
0.09652894 0.22310366 1.0645373
0.054180939 0.23616603 1.0656499
0.067942962 0.23217157 1.0656896
0.022697078 0.24621725 1.0655
0.036637917 0.24262609 1.0640233
0.047963824 0.24013923 1.0624167
0.0097770253 0.25382042 1.0625
0.012311322 0.2506038 1.0666667
0.25926539 0.38564566 1.0600001
0.27361739 0.38337409 1.0600001
0.24645084 0.39740524 1.0602999
0.26017484 0.39413488 1.0618793
0.27457142 0.39471424 1.06328
0.22209473 0.40051392 1.0600001
0.23018682 0.40906501 1.0621231
0.24508668 0.40911067 1.0630004
0.26086298 0.40966168 1.0674793
0.27431887 0.40917778 1.0696511
0.16262166 0.41352367 1.0600001
0.20091695 0.41041872 1.0603534
0.21654487 0.41052461 1.0626596
0.26189891 0.41780004 1.0699999
0.097479619 0.42879155 1.0601766
0.11025349 0.42916501 1.0601877
0.14193346 0.42734009 1.060943
0.15649588 0.42704117 1.0606205
0.17132692 0.42366529 1.0621076
0.18641436 0.42411551 1.063491
0.2012492 0.42400426 1.0632184
0.2160317 0.42431921 1.0671492
0.23076759 0.42485231 1.0687115
0.24541236 0.42427585 1.069151
0.072685346 0.43472993 1.0618382
0.082097434 0.43962875 1.0641854
0.097113453 0.43980652 1.0651253
0.11184304 0.43900353 1.0631787
0.12578717 0.43459895 1.061518
0.14174637 0.43862587 1.064766
0.15624677 0.4392482 1.0653751
0.17065492 0.43784997 1.0697427
0.18516628 0.4373869 1.0697498
0.2003016 0.43592763 1.0697498
0.21558212 0.43397838 1.0699999
0.23185734 0.43439093 1.0699998
0.24280633 0.43416515 1.0699999
0.071090654 0.44805819 1.067
0.08231549 0.44805816 1.067
0.097382873 0.44853058 1.068125
0.1122484 0.44805816 1.067
0.12721486 0.44805816 1.067
0.14193167 0.44830781 1.0699999
0.15506412 0.44859642 1.0699999
0.20892149 0.17692405 1.0735
0.18609592 0.18650693 1.0791228
0.20002596 0.18188708 1.079742
0.15484975 0.1962413 1.0786153
0.16837874 0.1947173 1.0730001
0.12420477 0.20725125 1.0773611
0.1104544 0.21162179 1.079919
0.065757751 0.22765537 1.0773158
0.07899414 0.2246554 1.0756923
0.032042168 0.23937207 1.075
0.041273467 0.23732243 1.0700001
0.052504785 0.23062441 1.0795375
0.021868827 0.24126393 1.0784333
0.28484946 0.40616843 1.0700001
0.27964577 0.4137575 1.0730001
0.28475142 0.41232026 1.0736153
0.26098853 0.42565227 1.0737115
0.27578402 0.4251422 1.0748039
0.24927579 0.43176445 1.0730001
0.065532878 0.44430664 1.0730001
0.17194335 0.44532987 1.0730001
0.18709795 0.44493374 1.0730001
0.20157756 0.44317991 1.0733078
0.21619998 0.4418242 1.0741767
0.23022829 0.44241476 1.0741113
0.24709082 0.44063973 1.074474
0.13827752 0.45057774 1.0730001
0.17140478 0.45016158 1.07425
0.18725525 0.45094985 1.0765294
0.2012977 0.45076671 1.0774735
0.20402642 0.17677785 1.0845333
0.17163454 0.18999633 1.0811778
0.14675224 0.19344614 1.087
0.15883891 0.1921133 1.0842776
0.11589873 0.20728596 1.085875
0.1412095 0.20021269 1.0804683
0.096988648 0.2164035 1.0812343
0.067719683 0.22122371 1.0842083
0.082510687 0.22011864 1.0825503
0.027547672 0.23729649 1.0836
0.038408574 0.23545799 1.0806452
-0.00095293665 0.2468106 1.087
0.0082198335 0.24774162 1.0810264
0.18785013 0.17786044 1.0999091
0.19728583 0.17656839 1.0948387
0.15651184 0.18819505 1.0953057
0.17178957 0.18373765 1.0962813
0.18501768 0.18151453 1.0945218
0.12584856 0.19953874 1.0954421
0.13836327 0.19555983 1.0941875
0.14405008 0.19179226 1.0973125
0.099527143 0.20636578 1.0972941
0.11220893 0.20234798 1.0959576
0.067147784 0.21699329 1.095697
0.082281798 0.21420832 1.0947667
0.094413497 0.21112151 1.0940801
0.036816515 0.22967592 1.0960231
0.04806615 0.22632349 1.0939375
0.054338638 0.22134832 1.0966666
0.018826125 0.23932822 1.092
0.023330919 0.23438059 1.0965
-0.0012368513 0.24396156 1.0962858
0.0072364784 0.24184214 1.094865
0.17921259 0.17921259 1.105
0.15663138 0.18322301 1.1097665
0.17036858 0.18022014 1.1066152
0.11201076 0.19753799 1.1085334
0.12690188 0.19471204 1.105
0.13465162 0.19471204 1.105
0.052240144 0.21720974 1.1088287
0.066472895 0.21238194 1.1096295
0.080927096 0.21033937 1.1071427
0.02240834 0.22779058 1.108303
0.034835663 0.22495931 1.1078749
0.045529682 0.22377355 1.105
0.0054303966 0.23665103 1.1069078
0.012536333 0.23674253 1.1000001
-0.0022629688 0.24013537 1.1060001
0.19957639 0.16904821 1.1105355
0.20429401 0.16323972 1.115
0.1630201 0.17766133 1.1135001
0.17175783 0.1768686 1.1129048
0.18628611 0.17447835 1.110788
0.14117002 0.18875369 1.1100644
0.1169298 0.1929311 1.1115
0.12732494 0.19073957 1.1108123
0.063788116 0.20968784 1.1194445
0.072333768 0.20820394 1.115
0.08364325 0.20561084 1.1129999
0.095416792 0.2036828 1.1102412
0.018965807 0.22530068 1.1190001
0.039879095 0.22096145 1.112421
-0.00097310002 0.23743466 1.1100001
0.18611674 0.16843612 1.1239998
0.19552624 0.16344528 1.1254445
0.14412785 0.17773576 1.1276
0.15702584 0.17544052 1.1252725
0.17174247 0.17203537 1.1253029
0.11274585 0.18930009 1.1245142
0.12651837 0.18516083 1.1249115
0.14121553 0.18274711 1.1231513
0.15342072 0.18129937 1.121182
0.097833604 0.19436115 1.1246524
0.10783217 0.19719905 1.1208947
0.056148086 0.20597845 1.1269168
0.067494176 0.20456444 1.1248887
0.081847109 0.20092618 1.1241314
0.037204012 0.21604961 1.1229767
0.051374827 0.21201836 1.1220767
0.0087939827 0.22832564 1.1251597
0.014157437 0.22127871 1.1268333
0.022844313 0.22002599 1.1242727
0.17087513 0.16704193 1.1382803
0.18198286 0.16491114 1.1361428
0.1342089 0.17993934 1.1340001
0.14237337 0.17537126 1.1391742
0.096517958 0.18945898 1.1394763
0.11217213 0.18538819 1.1395715
0.12596253 0.18087941 1.1399524
0.067349806 0.19920939 1.139542
0.080137439 0.19581673 1.1383916
0.046724584 0.20976354 1.1340001
0.051882513 0.20446296 1.1397145
0.0076842885 0.21989901 1.1399567
0.022193961 0.2156435 1.1395218
0.0356539 0.21144764 1.1393502
0.0037617283 0.22691566 1.1369445
0.19782077 0.15725069 1.1400002
0.15646738 0.16978694 1.1403334
0.16922472 0.16418827 1.149
0.17666587 0.16361669 1.1450001
0.18654612 0.16046299 1.1408803
0.13149561 0.17766964 1.1450001
0.086421065 0.19252519 1.1418333
0.042405535 0.20802481 1.1426667
-0.001679401 0.21971488 1.1496667
-0.0015076036 0.22687957 1.1452
0.19702777 0.14574058 1.1585002
0.17245774 0.15970238 1.1560969
0.18608904 0.15574306 1.1559999
0.19706577 0.15193497 1.153421
0.15615669 0.1642001 1.1550381
0.11387253 0.17620826 1.1585001
0.12455426 0.17749187 1.1538076
0.14112918 0.17101285 1.1546839
0.082380526 0.18986149 1.1552068
0.097122528 0.18526077 1.1544193
0.11090108 0.18218647 1.1531289
0.051463012 0.19857043 1.152351
0.066866055 0.19374618 1.1535883
0.026568886 0.20717975 1.1592858
0.034645036 0.20710669 1.1527778
0.0074675819 0.21534823 1.1533077
0.02191871 0.21167132 1.1542
0.18430644 0.15115674 1.1680001
0.13948128 0.1662464 1.1690001
0.081178404 0.18367529 1.1698425
0.095560968 0.18104398 1.1681581
0.049795154 0.19497603 1.169889
-0.002936892 0.21486191 1.169
0.0059626084 0.21179757 1.1697274
0.016000628 0.21005078 1.1650001
0.17695998 0.14703672 1.177
0.18805942 0.14612879 1.1728263
0.19592385 0.14367402 1.1718571
0.15627202 0.15791054 1.1719999
0.17082192 0.15334685 1.1706218
0.12676911 0.16913781 1.1705136
0.14357986 0.16123453 1.1738423
0.084347434 0.17797367 1.1762002
0.097327679 0.17621996 1.174273
0.11206254 0.17314683 1.1719233
0.067155711 0.18709895 1.1700592
0.036891393 0.19779919 1.1710002
0.055315707 0.19207788 1.1736155
0.011576603 0.20660909 1.174
0.022419583 0.20284428 1.1703333
0.16103549 0.14750005 1.1876668
0.17235599 0.14584534 1.1858
0.18596008 0.14170425 1.1861198
0.19564773 0.14024007 1.1850001
0.14172179 0.15695874 1.1851479
0.15537858 0.15142038 1.1849998
0.16669028 0.15012479 1.1810001
0.11273249 0.16610767 1.186846
0.12587662 0.16361609 1.1836858
0.074985906 0.17826819 1.184
0.082646921 0.17513797 1.1848093
0.097152285 0.17163555 1.1846362
0.05276959 0.18764107 1.1846249
0.06633354 0.18186581 1.1833156
0.023769282 0.19474787 1.1863999
0.035085425 0.19352597 1.184
-0.002391459 0.20839208 1.1862
0.0076963771 0.20345458 1.1843102
0.0020706865 0.21017469 1.1810001
0.18623275 0.13679403 1.1948004
0.19557644 0.13596223 1.1930001
0.15060431 0.14955845 1.1930001
0.17170833 0.14033304 1.1995429
0.12726258 0.15563904 1.1992955
0.13956673 0.15200657 1.198423
0.081366211 0.16951174 1.1993889
0.096040703 0.16731095 1.1984583
0.10730557 0.16503723 1.1930001
0.062929764 0.17952594 1.1935713
0.036725532 0.1861569 1.1987108
0.050235242 0.18244089 1.1968802
0.006000408 0.19798413 1.1985714
0.016761867 0.19485494 1.1950001
-0.010071522 0.21022379 1.1998571
0.18647201 0.13263361 1.2026666
0.14327246 0.14749916 1.2046666
0.15644512 0.14440966 1.201871
0.083523549 0.1638753 1.2060001
0.097909801 0.16286474 1.2056365
0.1122052 0.1601077 1.2013228
0.054446265 0.17716971 1.2049093
0.06742008 0.17428134 1.2017189
0.023067294 0.18975021 1.2001429
0.0092067542 0.19308484 1.2054287
-0.0158589 0.20722297 1.2060001
-0.0057142642 0.20401223 1.2027931
0.18549289 0.12833823 1.2154092
0.15620975 0.13861613 1.2143044
0.16503266 0.13501522 1.2159166
0.17304644 0.13218746 1.2167691
0.12891033 0.14738597 1.2153335
0.14296004 0.14420842 1.2142942
0.096541338 0.15957841 1.2139524
0.11233182 0.15465744 1.2159048
0.12316456 0.15103593 1.2123333
0.066462487 0.16833115 1.213909
0.074920952 0.16440582 1.2151668
0.083795652 0.16161275 1.2146924
0.039540298 0.17846566 1.2190001
0.045612965 0.17926957 1.21
0.053426467 0.17384687 1.2150526
0.0082856445 0.1897478 1.2145219
0.02177907 0.1848671 1.2145
0.035911169 0.1808808 1.2131538
-0.0067448183 0.19570455 1.2154396
0.0010607666 0.1941203 1.21
-0.016344426 0.20108849 1.2158333
0.17179178 0.12693365 1.2298285
0.18509595 0.12276962 1.2257915
0.14120556 0.1397596 1.2289335
0.15170464 0.13586153 1.2251251
0.12115446 0.1490307 1.223
0.10994583 0.15113738 1.2256111
0.05127785 0.16918361 1.2282811
0.065470919 0.16493461 1.2243334
0.032164901 0.17905128 1.223
-0.0072279866 0.1891446 1.2298148
0.021422228 0.18094046 1.2261333
-0.015015985 0.19655326 1.2235
0.18701716 0.11646631 1.230143
0.1462806 0.13327788 1.2360001
0.15837756 0.13094936 1.2315001
0.10185464 0.14844772 1.2360001
0.11330339 0.14648278 1.2340667
0.1262973 0.14334938 1.230091
0.067738146 0.15998971 1.2328
0.081286617 0.15736644 1.2305589
0.096489735 0.15412234 1.230069
0.054447763 0.16211094 1.2351428
0.01408628 0.1787874 1.2360001
0.02373926 0.17645413 1.2340528
0.038512044 0.17357747 1.2303233
0.0071031456 0.1845549 1.2301724
0.16311589 0.113856 1.24875
0.17155857 0.11494696 1.2473822
0.1828533 0.11480322 1.24525
0.15643302 0.12706669 1.2463044
0.16917287 0.12225096 1.2425385
0.12690924 0.13722166 1.2456112
0.1375044 0.13581045 1.2437778
0.14328614 0.13085389 1.2464999
0.096151516 0.14643361 1.2445881
0.11231875 0.14235146 1.245917
0.051389892 0.15994465 1.2472143
0.066709116 0.15364903 1.24588
0.080877118 0.1514443 1.2448334
0.036664281 0.16773322 1.2459048
0.04474945 0.16480894 1.245
0.0091602355 0.17658165 1.2481875
0.023416799 0.17082927 1.2472415
-0.0071364795 0.18452369 1.2463531
0.005446827 0.18063854 1.2437778
0.14569148 0.11809839 1.2590001
0.15581 0.11583263 1.2558426
0.17713489 0.11112189 1.2550001
0.1839314 0.11123994 1.2563335
0.12754771 0.12926681 1.257625
0.14142168 0.12523967 1.2566254
0.15527947 0.12238978 1.2552227
0.097095892 0.13959196 1.2553077
0.10081667 0.13259584 1.25
0.11133675 0.13479869 1.2556156
0.12322426 0.13532665 1.2550001
0.068189286 0.14519593 1.2564548
0.07342083 0.14793751 1.25
0.082464568 0.14403719 1.2525003
0.024995334 0.15948589 1.2573686
0.037275344 0.15680289 1.2550006
0.051288083 0.15518142 1.2576003
0.062076468 0.15060081 1.2570001
0.020923929 0.16602264 1.2564003
0.035373744 0.16311869 1.2525001
0.0074624955 0.17057468 1.2587061
-0.0092494367 0.18167125 1.2588125
0.05669228 0.14784457 1.268
0.05613647 0.15062362 1.268
0.0060027121 0.16651967 1.268
0.013756215 0.1624345 1.268
-0.015174516 0.1772994 1.2666668
-0.0071151601 0.17370251 1.2652369
-0.016621599 0.1817295 1.2640001
