# .PCD v0.7 - Point Cloud Data file format
VERSION 0.7
FIELDS x y z normal_x normal_y normal_z curvature
SIZE 4 4 4 4 4 4 4
TYPE F F F F F F F
COUNT 1 1 1 1 1 1 1
WIDTH 580
HEIGHT 1
VIEWPOINT 0 0 0 1 0 0 0
POINTS 580
DATA ascii
0.15664469 0.27314192 1.8529999 0.055166282 -0.9537738 -0.29541856 -2.6305601e-18
0.17115937 0.27335286 1.8530002 0.079581171 -0.94401902 -0.32014841 -2.6305601e-18
0.18606354 0.2750341 1.8530002 0.16614726 -0.92175567 -0.35037345 -2.6305601e-18
0.20143344 0.27859542 1.8529999 0.15338373 -0.92747164 -0.34098354 -2.6305601e-18
0.21605363 0.28103215 1.853 0.047917444 -0.94149637 -0.3335993 -2.6305601e-18
0.23067379 0.28103215 1.853 0.015171254 -0.94978279 -0.31254187 -2.6305601e-18
0.24575809 0.28010386 1.8529999 0.074256226 -0.95169991 -0.29791483 -2.6305601e-18
0.25504074 0.28103215 1.853 0.12556897 -0.9454248 -0.30067322 -2.6305601e-18
0.31352141 0.28103215 1.853 0.052142356 -0.92712379 -0.37110999 -2.6305601e-18
0.35250854 0.28103215 1.853 -0.11268977 -0.93802786 -0.32772657 -2.6305601e-18
0.3642047 0.28038234 1.853 -0.050800771 -0.9589861 -0.2788634 -2.6305601e-18
0.38120738 0.27994916 1.853 0.049167208 -0.9570241 -0.28581014 -2.6305601e-18
0.39376992 0.27908275 1.853 0.12044833 -0.94811833 -0.29421756 -2.6305601e-18
0.19980898 0.28428108 1.853 0.17714244 -0.92384613 -0.33930647 -2.6305601e-18
0.21767808 0.28428108 1.853 0.029579043 -0.94651687 -0.32129562 -2.6305601e-18
0.23067379 0.28428108 1.853 0.01531782 -0.9507646 -0.30953503 -2.6305601e-18
0.244211 0.28428108 1.853 0.079809278 -0.95219433 -0.29488379 -2.6305601e-18
0.26153859 0.28590551 1.853 0.13828014 -0.94670206 -0.29091898 -2.6305601e-18
0.27713344 0.2868802 1.853 -0.0086826812 -0.95869887 -0.28429034 -2.6305601e-18
0.28969595 0.28482255 1.853 -0.10094932 -0.94994068 -0.29567212 -2.6305601e-18
0.30507421 0.28493086 1.853 0.00053107017 -0.93836462 -0.34564653 -2.6305601e-18
0.32141167 0.28520933 1.8529999 0.087919272 -0.91518146 -0.39333588 -2.6305601e-18
0.33463943 0.28752998 1.8530002 -0.039126884 -0.91469491 -0.40224662 -2.6305601e-18
0.34731025 0.28655529 1.853 -0.14331691 -0.93077588 -0.336328 -2.6305601e-18
0.37200209 0.28428108 1.853 -0.02434813 -0.95247787 -0.30363318 -2.6305601e-18
0.38012442 0.28428108 1.853 0.049270011 -0.95700884 -0.28584358 -2.6305601e-18
0.39474458 0.28428108 1.853 0.13223469 -0.94615525 -0.29547286 -2.6305601e-18
0.40449136 0.28590554 1.853 0.16743663 -0.94043565 -0.29588121 -2.6305601e-18
0.42537734 0.28845826 1.8529999 0.032859143 -0.96228766 -0.27004203 -2.6305601e-18
0.44022956 0.28753 1.853 0.012790555 -0.95692939 -0.29003906 -2.6305601e-18
0.45430824 0.28969595 1.853 0.046070095 -0.92437273 -0.37869853 -2.6305601e-18
0.4694699 0.28897393 1.853 -0.0091928095 -0.91321015 -0.40738532 -2.6305601e-18
0.48376518 0.28882957 1.853 -0.0059945132 -0.93089867 -0.36522824 -2.6305601e-18
0.4983041 0.28956056 1.8529999 0.060342047 -0.92154753 -0.38354802 -2.6305601e-18
0.51554561 0.29284641 1.8530002 0.067071356 -0.91474366 -0.39842865 -2.6305601e-18
0.52942741 0.29432318 1.8530002 -0.0018247426 -0.91576093 -0.40171963 -2.6305601e-18
0.54280281 0.29170719 1.8529999 -0.031578444 -0.92725658 -0.37309253 -2.6305601e-18
0.55827385 0.29186192 1.853 0.02279559 -0.96004617 -0.27891147 -2.6305601e-18
0.5745185 0.29619381 1.853 -0.014677464 -0.96839106 -0.24900451 -2.6305601e-18
0.58805573 0.29159117 1.853 -0.00200727 -0.95661724 -0.2913408 -2.6305601e-18
0.60375887 0.29240337 1.853 0.13854729 -0.93855047 -0.31611323 -2.6305601e-18
0.61973274 0.29727679 1.853 0.15255038 -0.92567283 -0.34620544 -2.6305601e-18
0.63299918 0.29727679 1.853 0.046957824 -0.94935411 -0.31067926 -2.6305601e-18
0.64816087 0.29727679 1.853 -0.052350689 -0.96811765 -0.24496454 -2.6305601e-18
0.66278106 0.29646456 1.853 -0.0601415 -0.97272778 -0.22401731 -2.6305601e-18
0.67631817 0.29673529 1.853 -0.057449561 -0.96809787 -0.24389769 -2.6305601e-18
0.69283366 0.29646456 1.853 -0.1113481 -0.9443894 -0.30940282 -2.6305601e-18
0.70896226 0.29263544 1.8529999 -0.070093915 -0.93160433 -0.35665143 -2.6305601e-18
0.72252518 0.2915009 1.853 0.028538592 -0.91244322 -0.40820685 -2.6305601e-18
0.73750633 0.2932156 1.8529999 0.09875226 -0.89278167 -0.43953258 -2.6305601e-18
0.75212657 0.2956523 1.853 0.068233654 -0.90542817 -0.41897973 -2.6305601e-18
0.7667467 0.2956523 1.8529999 -0.059996478 -0.93050206 -0.36133966 -2.6305601e-18
0.77997446 0.29495612 1.8529999 -0.09646412 -0.93572354 -0.33928758 -2.6305601e-18
0.79598701 0.2924034 1.853 -0.048561711 -0.94996166 -0.3085686 -2.6305601e-18
0.61892051 0.30052572 1.853 0.15257479 -0.92543894 -0.3468194 -2.6305601e-18
0.63354069 0.30052572 1.853 -0.008335555 -0.94994414 -0.31230858 -2.6305601e-18
0.64491194 0.30052572 1.853 -0.064362414 -0.966277 -0.24933158 -2.6305601e-18
0.67902565 0.30052572 1.853 -0.072291747 -0.96666104 -0.24564287 -2.6305601e-18
0.75862437 0.30052572 1.853 0.00094225211 -0.9206332 -0.3904275 -2.6305601e-18
-0.88503623 0.18445094 1.8730001 0.034015018 -0.93243337 -0.35973734 -2.6305601e-18
-0.87216705 0.18703206 1.8696666 0.0043176804 -0.94122833 -0.33774316 -2.6305601e-18
-0.85730201 0.18680996 1.8674445 0.047280483 -0.96072125 -0.27345791 -2.6305601e-18
-0.84172887 0.18766698 1.868 0.1936997 -0.96163756 -0.19425155 -2.6305601e-18
-0.82863235 0.19160075 1.868 0.22029431 -0.9669646 -0.12825717 -2.6305601e-18
-0.81789231 0.1917717 1.8696667 0.22867349 -0.95426273 -0.1925905 -2.6305601e-18
-0.78651643 0.19211361 1.8730001 0.05432152 -0.94106758 -0.33382767 -2.6305601e-18
-0.71098453 0.19211361 1.8730001 0.015062002 -0.92628455 -0.3765237 -2.6305601e-18
-0.82478112 0.19435437 1.863 0.26881739 -0.94452858 -0.18868765 -2.6305601e-18
-0.81088626 0.1955622 1.8667501 0.1272525 -0.95187658 -0.27881473 -2.6305601e-18
-0.79734761 0.19796859 1.8663336 0.12362184 -0.93064231 -0.34441611 -2.6305601e-18
-0.7819072 0.19727097 1.8668462 0.086641967 -0.92799836 -0.3623701 -2.6305601e-18
-0.7671898 0.19941564 1.8696671 0.07308571 -0.91998506 -0.38507918 -2.6305601e-18
-0.75251347 0.19936135 1.8676158 -0.013800452 -0.9319523 -0.36231834 -2.6305601e-18
-0.73870301 0.19736058 1.8674445 -0.10800984 -0.93463898 -0.33879766 -2.6305601e-18
-0.7216686 0.1967506 1.8685557 -0.004398501 -0.93957001 -0.34232852 -2.6305601e-18
-0.70634991 0.19732876 1.8680004 0.16534762 -0.91773802 -0.3611331 -2.6305601e-18
-0.69281536 0.20183624 1.8682945 0.15274681 -0.8963514 -0.41620013 -2.6305601e-18
-0.67744279 0.20329811 1.8685559 0.080166787 -0.88062614 -0.46698055 -2.6305601e-18
-0.66299146 0.20184618 1.8687899 0.02817687 -0.86528701 -0.50048405 -2.6305601e-18
-0.64849061 0.20305529 1.8680004 0.11334705 -0.8615275 -0.49489662 -2.6305601e-18
-0.63402122 0.20551829 1.8680001 0.22467491 -0.88839906 -0.40033531 -2.6305601e-18
-0.61821175 0.20689157 1.8730001 0.12674928 -0.88330203 -0.45134473 -2.6305601e-18
-0.60699141 0.2057969 1.8730001 0.03539421 -0.90436041 -0.42529917 -2.6305601e-18
-0.63015836 0.21267529 1.8690001 0.23196265 -0.89237475 -0.38711846 -2.6305601e-18
-0.6197415 0.21422237 1.8685557 0.069530003 -0.93123245 -0.35773125 -2.6305601e-18
-0.60919482 0.21395312 1.863 -0.035252921 -0.94953144 -0.31168449 -2.6305601e-18
-0.22659555 0.23808952 1.8730001 -0.0063671307 -0.90477169 -0.42584932 -2.6305601e-18
-0.21838555 0.23677592 1.8730001 0.034285355 -0.85875124 -0.5112443 -2.6305601e-18
-0.2019656 0.23808952 1.8730001 0.093352489 -0.85484517 -0.51041639 -2.6305601e-18
-0.22709683 0.24216461 1.8690001 -0.0015257046 -0.87969249 -0.47554052 -2.6305601e-18
-0.21569268 0.24493642 1.8680003 0.028404554 -0.79020846 -0.61217958 -2.6305601e-18
-0.20170082 0.24699642 1.8680004 0.083921 -0.82493228 -0.55896693 -2.6305601e-18
-0.18684998 0.24555953 1.8683851 -0.004027992 -0.85394496 -0.52034777 -2.6305601e-18
-0.17147687 0.24707253 1.8683847 -0.10652936 -0.89061594 -0.44210255 -2.6305601e-18
-0.15655127 0.2438468 1.8706926 -0.030767903 -0.92772502 -0.37199405 -2.6305601e-18
-0.14083329 0.24481665 1.8680004 0.080393262 -0.93665171 -0.34091136 -2.6305601e-18
-0.12658893 0.2478479 1.8692503 0.043093402 -0.94818616 -0.31477937 -2.6305601e-18
-0.11201362 0.24661931 1.8680003 0.051865965 -0.97451061 -0.21826382 -2.6305601e-18
-0.095965892 0.24792941 1.868 0.18594281 -0.95549947 -0.2290107 -2.6305601e-18
-0.083275639 0.25055864 1.870778 0.094035774 -0.95024478 -0.29697177 -2.6305601e-18
-0.06743893 0.24944519 1.8691541 -0.056748126 -0.94055611 -0.3348639 -2.6305601e-18
-0.052447058 0.24827266 1.8656671 0.020865086 -0.93877643 -0.34389457 -2.6305601e-18
-0.039623875 0.24979258 1.8705002 0.11112563 -0.93997741 -0.32263544 -2.6305601e-18
-0.022926588 0.25218809 1.868 0.10321694 -0.93440288 -0.34093612 -2.6305601e-18
-0.012779521 0.25133875 1.8690001 0.14052351 -0.93959397 -0.31211582 -2.6305601e-18
-0.19925407 0.2564171 1.863 0.063461065 -0.83198464 -0.5511573 -2.6305601e-18
-0.078605443 0.25546327 1.868 0.029273886 -0.94299579 -0.33151481 -2.6305601e-18
-0.070323132 0.2559402 1.8655 -0.078948595 -0.93277407 -0.35170954 -2.6305601e-18
-0.035310004 0.25559953 1.8672857 0.12850089 -0.92715043 -0.35196528 -2.6305601e-18
-0.027764909 0.2564171 1.863 0.10986223 -0.94000077 -0.32299966 -2.6305601e-18
-0.0049128397 0.25546327 1.868 0.1826123 -0.93869835 -0.29240087 -2.6305601e-18
0.0068190056 0.25834867 1.8671669 0.19879223 -0.93873 -0.28154516 -2.6305601e-18
0.023621533 0.26214752 1.8672857 0.14005677 -0.93591654 -0.32317844 -2.6305601e-18
0.038050406 0.26306331 1.8667502 0.063570388 -0.91296542 -0.40305457 -2.6305601e-18
0.052331265 0.26266003 1.8699234 0.0070290179 -0.89078504 -0.45437071 -2.6305601e-18
0.066400819 0.26093259 1.8683848 0.036492087 -0.89841127 -0.43763626 -2.6305601e-18
0.081358872 0.26407567 1.8710003 -0.0056477515 -0.90403646 -0.42741805 -2.6305601e-18
0.096861713 0.26092368 1.8698184 -0.054993618 -0.89159667 -0.44947866 -2.6305601e-18
0.1110044 0.26093122 1.8683851 -0.007248878 -0.90295774 -0.42966813 -2.6305601e-18
0.12668069 0.2638132 1.8691541 0.13650933 -0.92986149 -0.34164721 -2.6305601e-18
0.14111418 0.26582485 1.8717501 0.08016599 -0.93069893 -0.35689339 -2.6305601e-18
0.15643601 0.26570958 1.8696668 0.059176285 -0.92623466 -0.37227353 -2.6305601e-18
0.17076766 0.26655081 1.8730001 0.076885067 -0.92873448 -0.3626858 -2.6305601e-18
0.18061963 0.26764545 1.8730001 0.1250326 -0.92911774 -0.34800452 -2.6305601e-18
0.1970396 0.26764545 1.8730001 0.21752346 -0.91201931 -0.34771284 -2.6305601e-18
0.047363669 0.26948294 1.863 0.0061722617 -0.91576171 -0.40167439 -2.6305601e-18
0.083294727 0.26948294 1.863 0.0099844141 -0.91354018 -0.40662587 -2.6305601e-18
0.089827649 0.26948294 1.863 -0.028929753 -0.90560955 -0.42312458 -2.6305601e-18
0.14317983 0.27002737 1.863 0.089743093 -0.94751036 -0.30687162 -2.6305601e-18
0.15581015 0.27013624 1.8630002 0.050921533 -0.94716322 -0.3166841 -2.6305601e-18
0.17148915 0.26948294 1.8630002 0.082842104 -0.94630259 -0.31248775 -2.6305601e-18
0.18796767 0.27129346 1.8710001 0.17878523 -0.90926129 -0.37587202 -2.6305601e-18
0.20128419 0.27328017 1.8666364 0.2202622 -0.9306941 -0.29204968 -2.6305601e-18
0.21615563 0.27684677 1.8666364 0.085514642 -0.94290364 -0.32190067 -2.6305601e-18
0.23138216 0.27557477 1.8674448 -0.015661005 -0.94389093 -0.32988578 -2.6305601e-18
0.24586517 0.27582377 1.8668466 0.10739619 -0.94449645 -0.31047145 -2.6305601e-18
0.26186207 0.27933145 1.8688335 0.09506122 -0.94057029 -0.32602265 -2.6305601e-18
0.27664071 0.27950436 1.8686254 -0.016476465 -0.93819094 -0.3457258 -2.6305601e-18
0.29122907 0.27878377 1.8670003 -0.089401022 -0.93038136 -0.35552499 -2.6305601e-18
0.3060863 0.27894744 1.8659416 -0.027201599 -0.94554949 -0.32433951 -2.6305601e-18
0.32014248 0.27719516 1.8671179 0.0082103834 -0.94152993 -0.33682936 -2.6305601e-18
0.33496109 0.27933598 1.8661253 -0.017463548 -0.92841768 -0.37112743 -2.6305601e-18
0.3491537 0.27715713 1.8663336 -0.067781053 -0.94427139 -0.32211399 -2.6305601e-18
0.36337316 0.27687597 1.8648185 -0.0028662963 -0.9593969 -0.28204516 -2.6305601e-18
0.37984881 0.27776518 1.8660002 0.031740636 -0.9622699 -0.27023897 -2.6305601e-18
0.39562345 0.27533996 1.8667501 0.10120265 -0.96189982 -0.25398198 -2.6305601e-18
0.40981379 0.28043798 1.8680001 0.20757262 -0.93815976 -0.27707371 -2.6305601e-18
0.42435431 0.28107595 1.8713335 0.067802124 -0.95726508 -0.2811518 -2.6305601e-18
0.44101 0.28120205 1.8685557 -0.015580528 -0.93200785 -0.36210307 -2.6305601e-18
0.45426354 0.27964458 1.8720001 -0.0041755885 -0.93852162 -0.34519514 -2.6305601e-18
0.47020912 0.28040227 1.8705001 -0.0083528403 -0.93225336 -0.36170986 -2.6305601e-18
0.48461571 0.28027591 1.8696671 -0.0016402336 -0.9177292 -0.39720318 -2.6305601e-18
0.4980723 0.27968675 1.8730001 0.066602856 -0.92236894 -0.38052544 -2.6305601e-18
0.51449227 0.28023407 1.8730001 0.050618164 -0.90732801 -0.41736507 -2.6305601e-18
0.52872294 0.28078142 1.8730001 0.028646352 -0.91508168 -0.40224969 -2.6305601e-18
0.53857493 0.28078142 1.8730001 0.099944383 -0.92084825 -0.37689471 -2.6305601e-18
0.26621649 0.28581524 1.863 0.09817256 -0.94070566 -0.32470766 -2.6305601e-18
0.27438265 0.28581524 1.863 0.0062084747 -0.93741673 -0.3481541 -2.6305601e-18
0.41402382 0.28663185 1.863 0.15061505 -0.94609809 -0.28672901 -2.6305601e-18
0.42536899 0.28494036 1.868 0.032418221 -0.94577634 -0.32319677 -2.6305601e-18
0.43827084 0.2860319 1.8644285 0.019418258 -0.93275237 -0.35999444 -2.6305601e-18
0.4548535 0.2868228 1.8657275 -0.0042255544 -0.9308278 -0.36543372 -2.6305601e-18
0.46752843 0.28627026 1.8660002 -0.01214324 -0.91989678 -0.39197257 -2.6305601e-18
0.48452488 0.28635964 1.863 -0.00067244715 -0.92950255 -0.36881495 -2.6305601e-18
0.50084114 0.28595787 1.8663335 0.059859008 -0.89913833 -0.43355173 -2.6305601e-18
0.51426643 0.28614733 1.8668466 0.047025714 -0.88219583 -0.46852854 -2.6305601e-18
0.5290513 0.28713852 1.8683851 0.039098281 -0.89208114 -0.45018071 -2.6305601e-18
0.54323673 0.28662768 1.8683338 0.089383192 -0.91705197 -0.38862109 -2.6305601e-18
0.5582571 0.28783673 1.8684547 0.10029834 -0.93295038 -0.34575105 -2.6305601e-18
0.574117 0.29105091 1.8682945 -0.00046714296 -0.95132172 -0.30819938 -2.6305601e-18
0.58742297 0.2890251 1.8687147 -0.05603176 -0.94714522 -0.31587404 -2.6305601e-18
0.60216111 0.28702983 1.869429 0.08498738 -0.92117459 -0.3797558 -2.6305601e-18
0.61959326 0.29152849 1.8688828 0.18057127 -0.91090536 -0.37100604 -2.6305601e-18
0.63211614 0.29247075 1.8680003 0.087273046 -0.92473388 -0.37047347 -2.6305601e-18
0.64854503 0.2957541 1.870778 0.00089885562 -0.93011385 -0.36727011 -2.6305601e-18
0.66371435 0.29363894 1.8693639 -0.077740893 -0.94525743 -0.3169302 -2.6305601e-18
0.67879033 0.29181504 1.869471 -0.06105778 -0.92909276 -0.36477202 -2.6305601e-18
0.69270605 0.29148641 1.8680003 -0.14384754 -0.93915099 -0.31193459 -2.6305601e-18
0.70662242 0.29000691 1.8690002 -0.10071039 -0.94458824 -0.31242681 -2.6305601e-18
0.72335935 0.2867443 1.8676671 0.0084166108 -0.95824307 -0.28583103 -2.6305601e-18
0.73768473 0.28666174 1.8685557 0.084818982 -0.94516003 -0.31540179 -2.6305601e-18
0.7521444 0.28980505 1.8660773 0.055148706 -0.93569052 -0.34848517 -2.6305601e-18
0.76712888 0.28819165 1.8702227 -0.021272924 -0.93270189 -0.36002031 -2.6305601e-18
0.7818327 0.28945354 1.8696671 -0.0077011813 -0.9534831 -0.30134806 -2.6305601e-18
0.79537982 0.28820208 1.8692505 -0.014939918 -0.95756346 -0.28783506 -2.6305601e-18
0.81088471 0.28860131 1.8705001 -4.051561e-05 -0.97087777 -0.23957528 -2.6305601e-18
0.61899418 0.29888108 1.863 0.14388356 -0.90514255 -0.40001822 -2.6305601e-18
0.6385929 0.29888108 1.863 0.0097267134 -0.94040769 -0.33990997 -2.6305601e-18
0.65165877 0.29888108 1.863 -0.044505622 -0.94355613 -0.32820889 -2.6305601e-18
-0.88976145 0.17531106 1.8830001 0.1055727 -0.90566605 -0.41063762 -2.6305601e-18
-0.8600477 0.17663167 1.8830001 0.11047251 -0.95591146 -0.2720829 -2.6305601e-18
-0.88462573 0.18286788 1.8830003 0.093145631 -0.90664804 -0.41147706 -2.6305601e-18
-0.87325382 0.18240935 1.8830001 0.085174263 -0.93976861 -0.331029 -2.6305601e-18
-0.85747981 0.18176737 1.8830003 0.07456287 -0.95982969 -0.27049479 -2.6305601e-18
-0.84089881 0.18653624 1.8830001 0.24879992 -0.94727582 -0.20190884 -2.6305601e-18
-0.82813293 0.18928753 1.8830003 0.18395422 -0.96324891 -0.19573542 -2.6305601e-18
-0.81217551 0.19313931 1.8830001 0.080711469 -0.96752566 -0.23954059 -2.6305601e-18
-0.7973187 0.19247901 1.8830001 0.031827863 -0.96128178 -0.27372307 -2.6305601e-18
-0.78301209 0.19203882 1.8830003 0.017126907 -0.91507435 -0.40292129 -2.6305601e-18
-0.76760495 0.19313931 1.8830001 0.047958806 -0.90455264 -0.4236562 -2.6305601e-18
-0.75274807 0.19313931 1.8830001 -0.019928321 -0.91390824 -0.40543124 -2.6305601e-18
-0.73789126 0.19313931 1.8830001 -0.096593849 -0.89247167 -0.44064045 -2.6305601e-18
-0.72232687 0.19172439 1.8830003 -0.073130988 -0.8881259 -0.45374483 -2.6305601e-18
-0.70716161 0.18983778 1.883 0.030056989 -0.8683129 -0.49510521 -2.6305601e-18
-0.69332057 0.1898378 1.883 0.09669923 -0.86394632 -0.4942126 -2.6305601e-18
-0.67996442 0.1907382 1.8830001 0.080710493 -0.85658354 -0.50965732 -2.6305601e-18
-0.66459733 0.19247901 1.8830001 0.021574127 -0.88193178 -0.47088307 -2.6305601e-18
-0.64874995 0.19313931 1.8830001 0.10887583 -0.90808928 -0.40437591 -2.6305601e-18
-0.63884538 0.19313931 1.8830001 0.22584234 -0.85263163 -0.47118399 -2.6305601e-18
-0.7659542 0.19644083 1.8830001 0.082653217 -0.90321022 -0.4211646 -2.6305601e-18
-0.73624045 0.19644083 1.8830001 -0.096484601 -0.89685625 -0.43167076 -2.6305601e-18
-0.69100952 0.19776145 1.8830001 0.12851134 -0.85956287 -0.49460736 -2.6305601e-18
-0.67846376 0.19644083 1.8830001 0.052148353 -0.86239302 -0.5035463 -2.6305601e-18
-0.65865457 0.19644083 1.8830001 0.091457978 -0.89070916 -0.44527826 -2.6305601e-18
-0.64764953 0.19699109 1.8830003 0.20760508 -0.86863744 -0.44985461 -2.6305601e-18
-0.63389313 0.20056772 1.8830003 0.1913337 -0.85768545 -0.47724938 -2.6305601e-18
-0.62027431 0.2034566 1.8830003 0.12227035 -0.868545 -0.48029116 -2.6305601e-18
-0.60527986 0.20194338 1.8830003 0.053726781 -0.88132507 -0.46944606 -2.6305601e-18
-0.59592557 0.20304389 1.8830001 0.043062817 -0.90457362 -0.42413691 -2.6305601e-18
-0.62068701 0.21294847 1.8830001 0.11830287 -0.86617368 -0.48553848 -2.6305601e-18
-0.22945611 0.23440838 1.8830003 -0.055788994 -0.89820933 -0.43601325 -2.6305601e-18
-0.21483506 0.23417255 1.8830003 0.05926612 -0.89918703 -0.43353236 -2.6305601e-18
-0.2002926 0.23495865 1.8830003 0.12658146 -0.8684929 -0.47926733 -2.6305601e-18
-0.19313931 0.23605916 1.8830001 0.073136672 -0.87450057 -0.4794786 -2.6305601e-18
-0.1667271 0.23605916 1.8830001 0.018504728 -0.92206132 -0.38660124 -2.6305601e-18
-0.15902354 0.23605914 1.883 -0.0092579313 -0.92588204 -0.37769938 -2.6305601e-18
-0.23440839 0.23936068 1.8830001 -0.048992552 -0.89752966 -0.43822411 -2.6305601e-18
-0.21625 0.23936068 1.8830001 0.011963929 -0.91510117 -0.40304691 -2.6305601e-18
-0.18571086 0.24059874 1.8830003 0.035365414 -0.86572814 -0.49926358 -2.6305601e-18
-0.17250478 0.24142413 1.8830003 0.025777495 -0.91478288 -0.40312251 -2.6305601e-18
-0.15682252 0.23936066 1.8830001 0.0089284806 -0.92534733 -0.3790153 -2.6305601e-18
-0.14163549 0.24002099 1.8830001 0.10148402 -0.9357717 -0.3376866 -2.6305601e-18
-0.12710878 0.24101146 1.8830001 0.064776607 -0.94838595 -0.31043223 -2.6305601e-18
-0.11295938 0.24124727 1.8830003 0.052082393 -0.9462046 -0.31934968 -2.6305601e-18
-0.097395025 0.24299236 1.8830001 0.095293663 -0.92475116 -0.36844853 -2.6305601e-18
-0.082302347 0.24549209 1.8830003 0.016674401 -0.91400743 -0.4053545 -2.6305601e-18
-0.068048134 0.24412955 1.8830003 -0.028802389 -0.91935247 -0.39237928 -2.6305601e-18
-0.052824426 0.24266221 1.8830001 0.0094786081 -0.92037338 -0.39092582 -2.6305601e-18
-0.037495911 0.24549209 1.8830003 0.10697922 -0.9230594 -0.3694818 -2.6305601e-18
-0.023110686 0.24761452 1.8830003 0.10510493 -0.92019004 -0.37709859 -2.6305601e-18
-0.0078411261 0.24967796 1.8830003 0.19218296 -0.92615193 -0.32451242 -2.6305601e-18
0.0069332058 0.25190648 1.8830001 0.19104363 -0.92630422 -0.32475033 -2.6305601e-18
0.024101146 0.25190648 1.8830001 0.007630894 -0.91525203 -0.40280962 -2.6305601e-18
0.039068066 0.25201654 1.8830003 -0.050394755 -0.86721504 -0.49537706 -2.6305601e-18
0.052824423 0.2514663 1.8830003 0.04783117 -0.8646962 -0.50001264 -2.6305601e-18
0.066030532 0.25256678 1.8830001 0.031091128 -0.86932313 -0.49326518 -2.6305601e-18
0.087490454 0.25256678 1.8830001 -0.0027457576 -0.87278163 -0.48810303 -2.6305601e-18
0.097395033 0.25256678 1.8830001 -0.031140752 -0.88072699 -0.47259942 -2.6305601e-18
0.10895038 0.25256678 1.8830001 0.10368224 -0.92659718 -0.36147979 -2.6305601e-18
0.012380726 0.25669369 1.8830001 0.11399192 -0.93120104 -0.34622326 -2.6305601e-18
0.022560431 0.25806931 1.8830003 0.041368462 -0.91579425 -0.39951158 -2.6305601e-18
0.037233885 0.25733566 1.8830003 -0.050760157 -0.86567402 -0.49802795 -2.6305601e-18
0.052274168 0.25696883 1.8830003 0.019540301 -0.86781204 -0.49650815 -2.6305601e-18
0.069096237 0.25681159 1.8830003 0.023335626 -0.85727435 -0.51433074 -2.6305601e-18
0.082721576 0.25806937 1.8830003 -0.0092684478 -0.85652578 -0.51602095 -2.6305601e-18
0.092442751 0.25586832 1.8830001 0.0081442036 -0.87443149 -0.48508078 -2.6305601e-18
0.1122519 0.25586832 1.8830001 0.10369486 -0.92646724 -0.36180902 -2.6305601e-18
0.12655853 0.25972009 1.8830003 0.13713732 -0.91591442 -0.37721878 -2.6305601e-18
0.14196564 0.26082063 1.8830003 0.038507983 -0.90792054 -0.41736963 -2.6305601e-18
0.15622224 0.26127085 1.8830001 0.038499508 -0.90004003 -0.43410325 -2.6305601e-18
0.1712667 0.26247141 1.8830003 0.098575905 -0.89955288 -0.42554367 -2.6305601e-18
0.18616942 0.26430556 1.8830003 0.22586071 -0.87975365 -0.41835457 -2.6305601e-18
0.19776145 0.26313168 1.8830001 0.1930099 -0.89740533 -0.3967503 -2.6305601e-18
0.18983777 0.26907441 1.883 0.20931597 -0.89094687 -0.40298954 -2.6305601e-18
0.20469466 0.27072519 1.8830001 0.1871389 -0.89783311 -0.39859098 -2.6305601e-18
0.21691032 0.27138552 1.8830001 0.094669484 -0.95166463 -0.29218522 -2.6305601e-18
0.23000635 0.27017495 1.8830003 -0.011106212 -0.95639622 -0.29186124 -2.6305601e-18
0.24596374 0.27105534 1.8830001 0.07298182 -0.94601148 -0.31580999 -2.6305601e-18
0.26049048 0.27435684 1.8830001 0.061529398 -0.91354114 -0.40206549 -2.6305601e-18
0.27520582 0.27379087 1.8830003 -0.011812686 -0.9091928 -0.41620779 -2.6305601e-18
0.28982687 0.27379087 1.8830003 -0.034970541 -0.91968036 -0.39110753 -2.6305601e-18
0.30491957 0.27331921 1.8830003 -0.019343585 -0.94410163 -0.32908648 -2.6305601e-18
0.32189885 0.27237594 1.883 0.015335849 -0.95101434 -0.30876628 -2.6305601e-18
0.33510497 0.27435687 1.8830001 -0.016232863 -0.95348024 -0.30101794 -2.6305601e-18
0.35106233 0.27127543 1.8830003 -0.020779075 -0.94911999 -0.3142285 -2.6305601e-18
0.36481869 0.27237594 1.8830003 0.0089975353 -0.95242572 -0.30463791 -2.6305601e-18
0.37868509 0.27501717 1.8830001 0.038825884 -0.95815855 -0.28359279 -2.6305601e-18
0.39123091 0.27237594 1.8830001 0.058903549 -0.96005785 -0.27353123 -2.6305601e-18
0.40883908 0.27677798 1.883 0.20993342 -0.92634755 -0.31274301 -2.6305601e-18
0.42424616 0.278979 1.8830001 0.071868286 -0.93577695 -0.34519026 -2.6305601e-18
0.43910304 0.278979 1.8830001 -0.040702689 -0.95184749 -0.30385768 -2.6305601e-18
0.45451021 0.27622771 1.8830003 -0.0099713188 -0.94724113 -0.32036656 -2.6305601e-18
0.46551526 0.27732825 1.8830001 -0.00018712734 -0.95053273 -0.31062445 -2.6305601e-18
0.48477414 0.27677798 1.883 -0.0085259946 -0.94914711 -0.31471738 -2.6305601e-18
0.50100666 0.27650285 1.8830001 0.011166099 -0.94874281 -0.31585208 -2.6305601e-18
0.5122869 0.27787849 1.8830003 0.026609413 -0.9412539 -0.33664963 -2.6305601e-18
0.52791411 0.2783187 1.8830001 0.065126896 -0.94019282 -0.33435902 -2.6305601e-18
0.54420167 0.28007951 1.8830003 0.1159686 -0.92822355 -0.35348594 -2.6305601e-18
0.55828816 0.28162023 1.8830001 0.1222817 -0.91617155 -0.38167626 -2.6305601e-18
0.57281482 0.28228053 1.8830001 0.057345126 -0.90950781 -0.41171244 -2.6305601e-18
0.58932251 0.28228053 1.8830001 -0.038098205 -0.92694694 -0.37325293 -2.6305601e-18
0.60417938 0.28228053 1.8830001 0.1037053 -0.91656977 -0.38619301 -2.6305601e-18
0.61408395 0.28228053 1.8830001 0.10060246 -0.92400903 -0.36889893 -2.6305601e-18
0.65865457 0.28228053 1.8830001 -0.025466001 -0.9277463 -0.37234166 -2.6305601e-18
0.69431102 0.28162023 1.8830001 -0.1129851 -0.93675095 -0.33125821 -2.6305601e-18
0.70817745 0.28062975 1.8830001 -0.096806161 -0.9362281 -0.33779499 -2.6305601e-18
0.72193384 0.28118002 1.8830003 -0.0067277392 -0.94193798 -0.33571944 -2.6305601e-18
0.73458964 0.28228053 1.883 0.054262385 -0.96373409 -0.2612896 -2.6305601e-18
0.75770038 0.28228053 1.8830001 0.0070256456 -0.9630329 -0.269292 -2.6305601e-18
0.76705474 0.28173029 1.8830003 -0.048908047 -0.96051288 -0.27390325 -2.6305601e-18
0.78246176 0.28228053 1.8830001 -0.0038337314 -0.94990766 -0.31250721 -2.6305601e-18
0.7973187 0.28228053 1.8830001 0.028008251 -0.95342976 -0.30031201 -2.6305601e-18
0.80887401 0.28228053 1.8830001 0.035432778 -0.95754081 -0.28611198 -2.6305601e-18
0.82373089 0.28228053 1.883 -0.057458978 -0.97555727 -0.21210037 -2.6305601e-18
0.84354007 0.278979 1.8830001 -0.21605547 -0.96936727 -0.11682159 -2.6305601e-18
0.56291032 0.28558207 1.8830001 0.086342745 -0.92371035 -0.37323478 -2.6305601e-18
0.57281482 0.28558207 1.8830001 0.057345126 -0.90950781 -0.41171244 -2.6305601e-18
0.58602101 0.28558207 1.883 -0.016294073 -0.9261688 -0.37675691 -2.6305601e-18
0.62123728 0.28668258 1.8830003 0.13148826 -0.91346914 -0.38507786 -2.6305601e-18
0.63499361 0.28668258 1.8830003 0.044334989 -0.91044974 -0.41123682 -2.6305601e-18
0.64933264 0.28966042 1.8829999 -0.0034204745 -0.91889322 -0.39449155 -2.6305601e-18
0.66294658 0.28822327 1.8830001 -0.024893725 -0.92943501 -0.36814505 -2.6305601e-18
0.67805111 0.28682011 1.8830003 -0.056996953 -0.94619703 -0.31853184 -2.6305601e-18
0.69332057 0.28558207 1.8830001 -0.11301845 -0.93674511 -0.33126342 -2.6305601e-18
0.70817745 0.28558207 1.8830001 -0.097050831 -0.9359439 -0.33851159 -2.6305601e-18
0.71808207 0.28558207 1.8830001 -0.007204955 -0.94086397 -0.3387078 -2.6305601e-18
0.74449426 0.28558207 1.8830001 0.040544167 -0.96446282 -0.26108938 -2.6305601e-18
0.75274801 0.28558207 1.8830001 0.0083782636 -0.96880287 -0.24769102 -2.6305601e-18
0.76100188 0.28558207 1.8830001 0.00696244 -0.96292758 -0.26967007 -2.6305601e-18
0.78081107 0.28558207 1.8830001 -0.016405085 -0.94992536 -0.31204593 -2.6305601e-18
0.7973187 0.28558207 1.8830001 0.028008251 -0.95342976 -0.30031201 -2.6305601e-18
0.81217551 0.28558207 1.8830001 0.059229858 -0.95570922 -0.28829113 -2.6305601e-18
0.82208014 0.28558207 1.8830001 -0.057478141 -0.97584367 -0.21077305 -2.6305601e-18
-0.89750993 0.16871589 1.8980001 0.2485808 -0.9198947 -0.30331725 -2.6305601e-18
-0.88661706 0.17265785 1.8983753 0.16436851 -0.92474037 -0.3432759 -2.6305601e-18
-0.87186813 0.17497455 1.8976364 0.17829898 -0.93397337 -0.30968249 -2.6305601e-18
-0.85715365 0.17566516 1.8985454 0.20572032 -0.9462871 -0.24943933 -2.6305601e-18
-0.77282727 0.17860155 1.904 -0.013087763 -0.9043318 -0.42662936 -2.6305601e-18
-0.73610544 0.17860155 1.9039999 -0.080630176 -0.89254695 -0.44368765 -2.6305601e-18
-0.72275203 0.17860155 1.904 -0.065453902 -0.91190708 -0.4051435 -2.6305601e-18
-0.70772946 0.17860155 1.904 0.094307736 -0.93865925 -0.3317 -2.6305601e-18
-0.69604522 0.17860155 1.9039999 0.14469501 -0.93876272 -0.31271049 -2.6305601e-18
-0.87503433 0.18181452 1.8940001 0.14100033 -0.92621684 -0.34963024 -2.6305601e-18
-0.8521691 0.18130285 1.8973335 0.20820028 -0.94573832 -0.24946271 -2.6305601e-18
-0.84093696 0.18369113 1.898 0.20797098 -0.94697529 -0.24492016 -2.6305601e-18
-0.82612258 0.1851694 1.9006665 0.075220861 -0.93527925 -0.34582457 -2.6305601e-18
-0.81208593 0.18736599 1.8977501 0.073034011 -0.93566251 -0.34525606 -2.6305601e-18
-0.797539 0.18685909 1.8985454 -0.065682143 -0.92460918 -0.37521151 -2.6305601e-18
-0.78213429 0.18620619 1.8975298 -0.016187804 -0.9167313 -0.39917627 -2.6305601e-18
-0.76718706 0.18633105 1.8966668 0.010336119 -0.89497095 -0.44600448 -2.6305601e-18
-0.75156498 0.18654688 1.8962225 -0.02693437 -0.87486601 -0.48361567 -2.6305601e-18
-0.73753947 0.18657646 1.8954288 -0.057256304 -0.87533832 -0.48010886 -2.6305601e-18
-0.72311771 0.18445215 1.8955386 -0.088575371 -0.89443851 -0.43833116 -2.6305601e-18
-0.70742792 0.18288362 1.8965001 0.090651013 -0.91026819 -0.40397304 -2.6305601e-18
-0.69250202 0.18342036 1.89775 0.14851058 -0.92795515 -0.34182444 -2.6305601e-18
-0.67742509 0.18604027 1.8994545 0.13117902 -0.93288094 -0.33544776 -2.6305601e-18
-0.66305262 0.18836142 1.8963081 0.095346928 -0.9493162 -0.29951257 -2.6305601e-18
-0.64732915 0.18966509 1.8954287 0.14928305 -0.94540346 -0.28970122 -2.6305601e-18
-0.63136482 0.19070306 1.9040002 0.16621056 -0.93599999 -0.31028697 -2.6305601e-18
-0.6185956 0.19128725 1.904 0.10840496 -0.94587666 -0.30588514 -2.6305601e-18
-0.60424078 0.19195493 1.904 0.14129668 -0.9364599 -0.32105771 -2.6305601e-18
-0.59255654 0.19195493 1.9039999 0.22839741 -0.92166072 -0.31364971 -2.6305601e-18
-0.5458197 0.19195493 1.904 -0.011078398 -0.97954768 -0.20090707 -2.6305601e-18
-0.63201112 0.19698463 1.8940003 0.16573839 -0.89058089 -0.42355222 -2.6305601e-18
-0.61885726 0.19711401 1.8940001 0.12908226 -0.91182518 -0.38975969 -2.6305601e-18
-0.60238439 0.19885038 1.898167 0.10336759 -0.92250359 -0.37189001 -2.6305601e-18
-0.58848792 0.19986998 1.9034443 0.27117693 -0.95017284 -0.15373607 -2.6305601e-18
-0.57920313 0.19863161 1.904 0.062681593 -0.99263519 0.10366528 -2.6305601e-18
-0.55631167 0.19767782 1.9040002 -0.15739523 -0.98609549 0.053313877 -2.6305601e-18
-0.54354733 0.19727542 1.899 -0.018188108 -0.99170882 -0.12721221 -2.6305601e-18
-0.53413546 0.19863163 1.904 0.094746441 -0.97943622 -0.17812321 -2.6305601e-18
-0.2687369 0.22200005 1.904 0.30294111 -0.91128951 -0.27888721 -2.6305601e-18
-0.26039103 0.22200005 1.904 0.11571732 -0.95934141 -0.25743648 -2.6305601e-18
-0.23201509 0.22200005 1.904 0.044952083 -0.93321413 -0.35649791 -2.6305601e-18
-0.25927827 0.2264512 1.9040002 0.061887652 -0.94645035 -0.31686223 -2.6305601e-18
-0.24450311 0.22948715 1.9021249 0.029030126 -0.9107554 -0.41192466 -2.6305601e-18
-0.23092891 0.22925724 1.8990002 -0.017685596 -0.93519801 -0.35368323 -2.6305601e-18
-0.21621595 0.22922602 1.8985457 0.061459593 -0.9438352 -0.32465044 -2.6305601e-18
-0.20100975 0.23133227 1.8984445 0.060299877 -0.94717002 -0.3150126 -2.6305601e-18
-0.18645647 0.23306185 1.8990004 0.020916294 -0.93020695 -0.36643896 -2.6305601e-18
-0.17242661 0.23253687 1.8987063 0.020248134 -0.92760479 -0.37301388 -2.6305601e-18
-0.15652885 0.23304783 1.8976364 0.076950207 -0.94102859 -0.32945988 -2.6305601e-18
-0.14242887 0.23527245 1.898 0.12921211 -0.9508881 -0.28127569 -2.6305601e-18
-0.12652405 0.23639582 1.899 0.040158153 -0.95876747 -0.28134024 -2.6305601e-18
-0.11194254 0.23627999 1.8995557 0.024536943 -0.94929588 -0.31342506 -2.6305601e-18
-0.096557826 0.23639581 1.8990002 0.066642478 -0.94119078 -0.33123803 -2.6305601e-18
-0.085127838 0.23535343 1.9039999 0.061848592 -0.94085288 -0.33312255 -2.6305601e-18
-0.048406024 0.23535343 1.9039999 0.022373224 -0.92961138 -0.36786175 -2.6305601e-18
-0.036721814 0.23535344 1.904 0.11086521 -0.92251831 -0.36968732 -2.6305601e-18
-0.10792644 0.24075897 1.8940001 0.06816788 -0.94607401 -0.31669721 -2.6305601e-18
-0.094643176 0.24075897 1.8940001 0.062898114 -0.94101924 -0.33245522 -2.6305601e-18
-0.080909155 0.24061108 1.8976364 0.043582987 -0.93657833 -0.34773767 -2.6305601e-18
-0.066591598 0.2397254 1.899 -0.029216027 -0.94489199 -0.32607597 -2.6305601e-18
-0.051608492 0.23972538 1.8990002 -0.030987665 -0.93899119 -0.34254238 -2.6305601e-18
-0.036606092 0.24092834 1.898 0.10140595 -0.92516297 -0.36577353 -2.6305601e-18
-0.021388788 0.24120669 1.8975713 0.18313682 -0.91924828 -0.34848747 -2.6305601e-18
-0.006841701 0.24538463 1.8984445 0.20740177 -0.93472129 -0.28858382 -2.6305601e-18
0.0065034325 0.24756733 1.8976363 0.107358 -0.92395997 -0.36711344 -2.6305601e-18
0.021644218 0.24638064 1.8990002 0.013493915 -0.92057073 -0.39034292 -2.6305601e-18
0.036134694 0.24700157 1.8982857 -0.0029549813 -0.93819326 -0.34609911 -2.6305601e-18
0.052756265 0.24797678 1.8952501 0.0050475448 -0.92758024 -0.37358993 -2.6305601e-18
0.066850685 0.24708797 1.8955386 -0.011449077 -0.92689103 -0.3751559 -2.6305601e-18
0.081520945 0.24612203 1.8976845 0.023885362 -0.91874778 -0.39412197 -2.6305601e-18
0.095681302 0.24681456 1.8993844 0.064257033 -0.92962641 -0.36285773 -2.6305601e-18
0.1108356 0.24960218 1.8995557 0.16138007 -0.93429416 -0.31788495 -2.6305601e-18
0.12668402 0.25171423 1.9015 0.11813277 -0.9412061 -0.31650555 -2.6305601e-18
0.14172719 0.25044507 1.9020001 -0.0070643122 -0.92818004 -0.3720645 -2.6305601e-18
0.15787335 0.25071177 1.9023334 0.030115213 -0.9186672 -0.39388284 -2.6305601e-18
0.17014718 0.24979323 1.9027501 0.1493156 -0.90978909 -0.38728371 -2.6305601e-18
0.20196998 0.25204518 1.9039999 0.208024 -0.868626 -0.44968307 -2.6305601e-18
0.01494366 0.25404221 1.8940001 0.058682565 -0.92729616 -0.36970016 -2.6305601e-18
0.079699516 0.25404221 1.8940001 0.021965396 -0.90761536 -0.41922769 -2.6305601e-18
0.11622847 0.25404221 1.8940001 0.12910195 -0.93588799 -0.32779014 -2.6305601e-18
0.1261909 0.25570261 1.8940001 0.1066597 -0.93356544 -0.34216842 -2.6305601e-18
0.14113458 0.25570258 1.8940003 0.022810752 -0.92787963 -0.3721815 -2.6305601e-18
0.15607822 0.25570264 1.8940001 0.017335702 -0.91061783 -0.41288567 -2.6305601e-18
0.1721786 0.25712505 1.8967274 0.13311778 -0.9052093 -0.40357873 -2.6305601e-18
0.18673721 0.259137 1.8962222 0.2155194 -0.88257414 -0.41786861 -2.6305601e-18
0.20145114 0.26018897 1.8965 0.18086581 -0.89031929 -0.41787466 -2.6305601e-18
0.21538615 0.26308072 1.9008751 0.16341403 -0.88304961 -0.43990815 -2.6305601e-18
0.23067279 0.26536682 1.8998333 0.063701481 -0.93064475 -0.36033651 -2.6305601e-18
0.24504632 0.26476747 1.9014999 0.068887807 -0.93959725 -0.33527812 -2.6305601e-18
0.26137951 0.26471394 1.9017779 -0.015911493 -0.92791986 -0.37244007 -2.6305601e-18
0.27547473 0.2647568 1.9011432 -0.013427926 -0.9086237 -0.41739985 -2.6305601e-18
0.29015455 0.26550162 1.9 0.0028099937 -0.92589629 -0.37776735 -2.6305601e-18
0.30614883 0.26583546 1.9 -0.0034883306 -0.94766265 -0.31925431 -2.6305601e-18
0.31833622 0.26547217 1.9011431 0.033181746 -0.94520998 -0.32477245 -2.6305601e-18
0.33466923 0.26539856 1.904 -0.03903579 -0.95031804 -0.30882329 -2.6305601e-18
0.35197535 0.26509008 1.8998332 -0.031787165 -0.92611116 -0.37590903 -2.6305601e-18
0.3640402 0.262804 1.9001539 0.001090388 -0.92552793 -0.37867785 -2.6305601e-18
0.38057151 0.26539856 1.904 0.093082182 -0.93182677 -0.35076272 -2.6305601e-18
0.39559409 0.26539856 1.904 0.034727219 -0.93495637 -0.35305893 -2.6305601e-18
0.4122858 0.26539856 1.9039999 0.10943355 -0.92260176 -0.36990577 -2.6305601e-18
0.20755084 0.27064627 1.8940001 0.17888996 -0.89580584 -0.40685421 -2.6305601e-18
0.21087165 0.27064627 1.8940001 0.17521565 -0.90616614 -0.38491875 -2.6305601e-18
0.24906099 0.27064627 1.8940001 0.054723304 -0.93967313 -0.33766818 -2.6305601e-18
0.26098385 0.27095994 1.8962222 0.0066464078 -0.91797239 -0.39658862 -2.6305601e-18
0.27463126 0.27131042 1.8940001 -0.011337055 -0.91789508 -0.39666134 -2.6305601e-18
0.29057115 0.27064627 1.8940001 -0.010009922 -0.93015653 -0.36702672 -2.6305601e-18
0.30551481 0.27064627 1.8940001 0.0043316931 -0.94510818 -0.32672876 -2.6305601e-18
0.32129684 0.27032804 1.8956667 0.038549796 -0.95247793 -0.30215821 -2.6305601e-18
0.33595109 0.27035573 1.8989999 -0.068821602 -0.94284368 -0.326051 -2.6305601e-18
0.34605962 0.27092856 1.8960001 -0.036174018 -0.94060808 -0.33756149 -2.6305601e-18
0.36861026 0.27064627 1.8940001 0.040803365 -0.92225444 -0.38442421 -2.6305601e-18
0.38117614 0.27084002 1.8973331 0.098584212 -0.91632831 -0.38810244 -2.6305601e-18
0.39566839 0.27038214 1.8985454 0.080599129 -0.92285091 -0.37662974 -2.6305601e-18
0.40945563 0.27194697 1.8973335 0.12081553 -0.92994618 -0.3472805 -2.6305601e-18
0.42433473 0.27492556 1.9006666 0.075245403 -0.93513072 -0.34622055 -2.6305601e-18
0.43814844 0.27328214 1.8995557 0.047776293 -0.94519717 -0.32298559 -2.6305601e-18
0.45339519 0.27349967 1.9 -0.0080594262 -0.96647966 -0.25661677 -2.6305601e-18
0.46943343 0.27371472 1.8993847 -0.0079447301 -0.97006208 -0.24272688 -2.6305601e-18
0.48391861 0.27316687 1.9009229 -0.010751819 -0.96382856 -0.26630622 -2.6305601e-18
0.49837682 0.27280107 1.9013331 0.0081260586 -0.96320432 -0.2686474 -2.6305601e-18
0.51426572 0.27423319 1.8984445 0.034015704 -0.96011943 -0.27751315 -2.6305601e-18
0.52934587 0.27305105 1.8999997 -0.0012001183 -0.95658612 -0.29144755 -2.6305601e-18
0.54382396 0.27471083 1.9012727 0.071332633 -0.92671704 -0.36892709 -2.6305601e-18
0.5596596 0.2748253 1.9 0.033150457 -0.90894514 -0.41559568 -2.6305601e-18
0.57434964 0.27504957 1.8989999 0.022526149 -0.89718813 -0.44107381 -2.6305601e-18
0.58909243 0.27615711 1.9010589 0.052074987 -0.89641732 -0.44014093 -2.6305601e-18
0.60365874 0.27843887 1.9001536 0.11150303 -0.91298038 -0.39247155 -2.6305601e-18
0.6163637 0.27838156 1.9015001 0.14942735 -0.92270237 -0.35537562 -2.6305601e-18
0.62927836 0.27958655 1.904 0.16993299 -0.92266041 -0.34615105 -2.6305601e-18
0.65097761 0.28209031 1.904 0.017256644 -0.94788599 -0.31814194 -2.6305601e-18
0.66263521 0.28073061 1.9023334 -0.089378692 -0.95171225 -0.2936925 -2.6305601e-18
0.67792284 0.28065959 1.9040002 -0.050315294 -0.95977867 -0.27621248 -2.6305601e-18
0.69261563 0.28016874 1.9012729 -0.10561825 -0.96377546 -0.2449114 -2.6305601e-18
0.70641094 0.27758068 1.8960001 -0.089502223 -0.96213657 -0.25745422 -2.6305601e-18
0.72309667 0.27673781 1.8985454 0.0041942992 -0.96320462 -0.26873645 -2.6305601e-18
0.73691332 0.27830172 1.8984447 0.055396248 -0.95873684 -0.27884546 -2.6305601e-18
0.75327402 0.28018266 1.9040002 0.025788557 -0.96173728 -0.27275676 -2.6305601e-18
0.76621187 0.27968252 1.8990002 -0.025875198 -0.96515477 -0.26039723 -2.6305601e-18
0.78337109 0.27886623 1.898 -0.016711092 -0.96874481 -0.24749593 -2.6305601e-18
0.79770035 0.27851665 1.9003636 0.035148632 -0.95598137 -0.29131445 -2.6305601e-18
0.81090498 0.27825806 1.9006666 0.031880546 -0.95151818 -0.30593589 -2.6305601e-18
0.82638144 0.27916455 1.9017779 -0.031103207 -0.95885706 -0.28218049 -2.6305601e-18
0.84033233 0.27937087 1.9006667 -0.11417449 -0.96315134 -0.24352334 -2.6305601e-18
0.62265247 0.28392953 1.8940001 0.14090669 -0.92694855 -0.34772357 -2.6305601e-18
0.63261491 0.28392953 1.8940001 0.09381187 -0.9471581 -0.30674228 -2.6305601e-18
0.64755857 0.28392953 1.8940001 -0.0081513356 -0.96286589 -0.26985714 -2.6305601e-18
0.66250223 0.28392953 1.8940001 -0.041660137 -0.95497191 -0.29375675 -2.6305601e-18
0.67744589 0.28392953 1.8940001 -0.063922174 -0.95397758 -0.29298571 -2.6305601e-18
0.68740833 0.28392953 1.8940001 -0.10389597 -0.94936883 -0.29648685 -2.6305601e-18
0.75216424 0.28392953 1.8940001 0.040046144 -0.96432853 -0.26166195 -2.6305601e-18
0.81858051 0.28392953 1.8940001 -0.029407322 -0.9595049 -0.28015289 -2.6305601e-18
0.82190132 0.28392953 1.8940001 -0.022443838 -0.96171224 -0.27314079 -2.6305601e-18
-0.91159743 0.16284521 1.9150001 0.20855884 -0.94018477 -0.26936182 -2.6305601e-18
-0.90488219 0.16284521 1.9150001 0.20919059 -0.93954718 -0.27109113 -2.6305601e-18
-0.90068513 0.16620284 1.9150001 0.17525597 -0.94451034 -0.27782309 -2.6305601e-18
-0.88529605 0.16844125 1.9150001 0.15176249 -0.91386038 -0.37659961 -2.6305601e-18
-0.87256497 0.16830137 1.9150001 0.17005913 -0.91313928 -0.37048152 -2.6305601e-18
-0.85691601 0.1729181 1.9150001 0.17144728 -0.90110302 -0.39827016 -2.6305601e-18
-0.84276593 0.17627575 1.9150001 0.13417102 -0.8998695 -0.41500971 -2.6305601e-18
-0.82765669 0.17343466 1.9150003 0.043822896 -0.84966606 -0.52549696 -2.6305601e-18
-0.81254727 0.17627575 1.9150001 0.058000281 -0.82501227 -0.56213063 -2.6305601e-18
-0.77897096 0.17627575 1.9150001 -0.017996958 -0.91222078 -0.40930361 -2.6305601e-18
-0.77225566 0.17627575 1.9150001 0.0026926131 -0.92002398 -0.39185271 -2.6305601e-18
-0.7571463 0.17627575 1.9150001 -0.0035793427 -0.93005508 -0.36740264 -2.6305601e-18
-0.73700047 0.17627575 1.9150002 -0.059102651 -0.93453562 -0.35092735 -2.6305601e-18
-0.72189116 0.17627575 1.9150001 -0.045396343 -0.94651353 -0.31945461 -2.6305601e-18
-0.7134971 0.17627575 1.9150001 0.07441666 -0.96193689 -0.2629438 -2.6305601e-18
-0.85116005 0.17963338 1.9150001 0.20224731 -0.91538054 -0.34810111 -2.6305601e-18
-0.84276593 0.17963338 1.9150001 0.13401218 -0.90020639 -0.4143298 -2.6305601e-18
-0.82765657 0.17963338 1.9150002 0.021976061 -0.85148162 -0.52392393 -2.6305601e-18
-0.81182772 0.18107237 1.9150001 0.067887671 -0.83464223 -0.54659265 -2.6305601e-18
-0.79887688 0.1805927 1.9150001 -0.01722471 -0.85153222 -0.52401936 -2.6305601e-18
-0.78400737 0.17963338 1.9150001 -0.031530887 -0.91030997 -0.41272458 -2.6305601e-18
-0.76665956 0.18019299 1.9150001 -5.3655454e-05 -0.9227767 -0.38533512 -2.6305601e-18
-0.75210989 0.17963338 1.9150001 0.0058895275 -0.93297124 -0.35990274 -2.6305601e-18
-0.68999362 0.18187182 1.9150001 0.1711531 -0.94706601 -0.27161148 -2.6305601e-18
-0.67656308 0.18187182 1.9150001 0.16138187 -0.94929349 -0.26981053 -2.6305601e-18
-0.66313261 0.18443 1.9150001 0.095547482 -0.95658565 -0.2753447 -2.6305601e-18
-0.64802325 0.18718806 1.9150001 0.12401952 -0.94081903 -0.31540254 -2.6305601e-18
-0.63403302 0.18690826 1.9150001 0.15055931 -0.93920708 -0.30858064 -2.6305601e-18
-0.61948335 0.18970628 1.9150001 0.096749008 -0.94126058 -0.32352465 -2.6305601e-18
-0.60437399 0.19138511 1.9150001 0.15803033 -0.94275862 -0.29365373 -2.6305601e-18
-0.58782566 0.19114529 1.9150001 0.32285604 -0.88905764 -0.32456207 -2.6305601e-18
-0.57391548 0.19162492 1.9150001 -0.048192561 -0.93906927 -0.34033272 -2.6305601e-18
-0.55736715 0.19138512 1.9150001 -0.20016289 -0.93708205 -0.28602797 -2.6305601e-18
-0.54393661 0.1922245 1.9150001 0.06358432 -0.96502292 -0.25433797 -2.6305601e-18
-0.52882725 0.19306391 1.9150001 0.10186891 -0.97038168 -0.21904808 -2.6305601e-18
-0.60941046 0.19642155 1.9150001 0.16537996 -0.94004893 -0.29825729 -2.6305601e-18
-0.58254939 0.20313682 1.9150001 0.14813858 -0.9697696 -0.19391236 -2.6305601e-18
-0.57463497 0.20073853 1.9150003 0.04652071 -0.92786115 -0.37001273 -2.6305601e-18
-0.56240356 0.19893977 1.9150001 -0.14832801 -0.96407002 -0.22038102 -2.6305601e-18
-0.54225779 0.19642155 1.9150001 0.054000195 -0.9660027 -0.25282934 -2.6305601e-18
-0.53386366 0.19642155 1.9150001 -0.0067886082 -0.98074365 -0.19518173 -2.6305601e-18
-0.5758341 0.20985208 1.9150001 0.03089601 0.98839378 -0.1487384 -2.6305601e-18
-0.27196831 0.21992499 1.9150001 0.17236403 -0.96862215 -0.17905781 -2.6305601e-18
-0.25820202 0.22059651 1.9150002 0.026460798 -0.94764727 -0.31822059 -2.6305601e-18
-0.24510723 0.22160378 1.9150001 0.027144874 -0.92431599 -0.38066146 -2.6305601e-18
-0.23223631 0.22029805 1.9150001 0.050061159 -0.93755251 -0.34422258 -2.6305601e-18
-0.22160381 0.22160381 1.9150001 0.071979836 -0.94071454 -0.33147407 -2.6305601e-18
-0.18466984 0.22328262 1.9150001 -0.015553783 -0.93221647 -0.36156672 -2.6305601e-18
-0.1712393 0.22328262 1.9150001 0.048245508 -0.93147308 -0.36059695 -2.6305601e-18
-0.24846485 0.23335552 1.9150001 0.035670053 -0.93176317 -0.36130998 -2.6305601e-18
-0.2132097 0.22664027 1.9150001 0.1189978 -0.95128089 -0.28443646 -2.6305601e-18
-0.20061859 0.22747967 1.9150001 -0.0039231461 -0.95186138 -0.30650386 -2.6305601e-18
-0.18634865 0.22664025 1.9150002 -0.046905775 -0.93205065 -0.35927904 -2.6305601e-18
-0.1712393 0.22664025 1.9150001 0.048245508 -0.93147308 -0.36059695 -2.6305601e-18
-0.15565029 0.22807923 1.9150001 0.15041126 -0.93268108 -0.32784522 -2.6305601e-18
-0.14030111 0.23143686 1.9150001 0.089402899 -0.93918425 -0.33157209 -2.6305601e-18
-0.12792583 0.23268399 1.9150002 0.041015942 -0.93378055 -0.35548779 -2.6305601e-18
-0.11285378 0.23186323 1.9150001 0.0047374396 -0.92488158 -0.38022557 -2.6305601e-18
-0.098090865 0.23191653 1.9150001 0.040504269 -0.92712414 -0.37255892 -2.6305601e-18
-0.082741678 0.23383519 1.9150001 0.085750103 -0.92980194 -0.35793188 -2.6305601e-18
-0.067152664 0.23503435 1.9150001 -0.041722462 -0.91233224 -0.4073194 -2.6305601e-18
-0.051526759 0.23180583 1.9150003 0.0025837892 -0.90483791 -0.42574829 -2.6305601e-18
-0.037653457 0.23191653 1.9150001 0.067368656 -0.91242832 -0.40365338 -2.6305601e-18
-0.021824617 0.23503432 1.9150002 0.22570252 -0.90887803 -0.35071227 -2.6305601e-18
-0.0100729 0.23671314 1.9150001 0.25785616 -0.92217654 -0.2882719 -2.6305601e-18
-0.00503645 0.2423092 1.9150001 0.20215397 -0.93726051 -0.28403631 -2.6305601e-18
0.006715267 0.24342841 1.9150001 0.1303345 -0.93851727 -0.31968451 -2.6305601e-18
0.020705404 0.24063039 1.9150001 -0.032313745 -0.94633543 -0.32156655 -2.6305601e-18
0.036933966 0.24174958 1.9150001 0.095503934 -0.95521355 -0.2800824 -2.6305601e-18
0.052043319 0.24611452 1.9150002 0.0028112519 -0.96242845 -0.27152103 -2.6305601e-18
0.067152664 0.242589 1.9150001 -0.065794535 -0.94378734 -0.3239392 -2.6305601e-18
0.083940834 0.24007078 1.9150001 0.050111759 -0.94370687 -0.32696509 -2.6305601e-18
0.096811764 0.2423092 1.9150001 0.090191454 -0.93334675 -0.34746134 -2.6305601e-18
0.1113615 0.24622643 1.9150001 0.13858061 -0.92818338 -0.34535635 -2.6305601e-18
0.12759008 0.24846485 1.9150001 0.037480231 -0.92690367 -0.3734231 -2.6305601e-18
0.1417401 0.248225 1.9150001 -0.026043771 -0.92035764 -0.39020973 -2.6305601e-18
0.15565027 0.24774535 1.9150001 -0.007172198 -0.91215962 -0.40977234 -2.6305601e-18
0.1717989 0.24622643 1.9150001 0.16910017 -0.87972343 -0.44440049 -2.6305601e-18
0.18075259 0.24902447 1.9150001 0.1084045 -0.89814866 -0.42611897 -2.6305601e-18
0.20313682 0.25014368 1.9150001 0.15485607 -0.87965101 -0.44970402 -2.6305601e-18
0.18802746 0.25462052 1.9150001 0.16333859 -0.88805544 -0.42974168 -2.6305601e-18
0.19642155 0.25518012 1.9150001 0.20267224 -0.86678642 -0.45563719 -2.6305601e-18
0.21656737 0.25585166 1.9150002 0.18439959 -0.8673721 -0.46223643 -2.6305601e-18
0.23134093 0.26088813 1.9150002 0.16337419 -0.91530198 -0.36814576 -2.6305601e-18
0.24566682 0.26133582 1.9150001 0.043991745 -0.92688823 -0.37275067 -2.6305601e-18
0.26223117 0.26021659 1.9150002 -0.039266679 -0.91921377 -0.39179614 -2.6305601e-18
0.27532589 0.25853777 1.9150001 -0.01557742 -0.91467005 -0.40390101 -2.6305601e-18
0.29043525 0.26155967 1.9150002 0.055364423 -0.91648161 -0.39622754 -2.6305601e-18
0.30554461 0.26357421 1.9150001 0.032270934 -0.92652458 -0.37484771 -2.6305601e-18
0.3223328 0.26273483 1.9150001 0.01231799 -0.9290809 -0.36967152 -2.6305601e-18
0.33632293 0.26357424 1.9150001 -0.0042510079 -0.93292737 -0.36003965 -2.6305601e-18
0.3508727 0.26069626 1.9150001 -0.061305337 -0.9325586 -0.35577551 -2.6305601e-18
0.36598203 0.25769836 1.9150001 0.046076965 -0.94075072 -0.3359538 -2.6305601e-18
0.38013202 0.26165557 1.9150001 0.069888361 -0.92698437 -0.36853158 -2.6305601e-18
0.39340273 0.26301461 1.9150001 0.059292138 -0.92098725 -0.38505441 -2.6305601e-18
0.4092955 0.26424575 1.9150002 0.14363758 -0.90579784 -0.39862078 -2.6305601e-18
0.42585981 0.26581267 1.9150001 0.1078269 -0.91296679 -0.39352897 -2.6305601e-18
0.43984997 0.26525304 1.9150001 0.092423946 -0.92999232 -0.35576975 -2.6305601e-18
0.45294476 0.26626033 1.9150002 0.044463903 -0.93842 -0.34262353 -2.6305601e-18
0.47006866 0.26693186 1.9150001 -0.036744855 -0.94190758 -0.33385625 -2.6305601e-18
0.4834992 0.26581267 1.9150001 -0.050491981 -0.94664973 -0.31828415 -2.6305601e-18
0.49812892 0.26597255 1.9150001 0.021084087 -0.94446599 -0.32793218 -2.6305601e-18
0.51371789 0.26693186 1.9150001 -0.030988213 -0.9409678 -0.3370747 -2.6305601e-18
0.53026623 0.26597255 1.9150001 -0.026679009 -0.89040804 -0.45438066 -2.6305601e-18
0.54292929 0.26626033 1.9150002 0.016170517 -0.87265992 -0.48806056 -2.6305601e-18
