# .PCD v0.7 - Point Cloud Data file format
VERSION 0.7
FIELDS x y z
SIZE 4 4 4
TYPE F F F
COUNT 1 1 1
WIDTH 926
HEIGHT 1
VIEWPOINT 0 0 0 1 0 0 0
POINTS 926
DATA ascii
0.365136 0.067474842 1.0481323
0.37587878 0.067767367 1.0492593
0.37198323 0.057442266 1.0511668
0.35227764 0.069986425 1.0532857
0.33848622 0.075703382 1.0535538
0.35250688 0.085402243 1.054477
0.36456102 0.082147136 1.0502322
0.37797821 0.081023678 1.0533423
0.36863884 0.091409378 1.0558751
0.37683225 0.09328144 1.057
0.3548699 0.057913285 1.0674444
0.36588004 0.055537838 1.0666285
0.37704334 0.053217042 1.06695
0.33624986 0.069386989 1.0651315
0.34909841 0.064251296 1.06305
0.36182535 0.061698776 1.0610001
0.3248798 0.073410019 1.0690001
0.32044986 0.082395114 1.0647393
0.33278695 0.083040573 1.0604188
0.34429333 0.087815702 1.0600001
0.38657492 0.085492536 1.0600001
0.32233918 0.095070586 1.0667907
0.33563921 0.097031891 1.0656192
0.34955719 0.097261675 1.0621697
0.36442181 0.097958624 1.0622267
0.380972 0.098480754 1.0615684
0.3911683 0.097614579 1.0649129
0.35092777 0.11077498 1.0683461
0.36581346 0.11129914 1.0678301
0.37994987 0.11212827 1.0664928
0.39284363 0.1132041 1.065609
0.38334835 0.12299575 1.0688001
0.39472973 0.12325583 1.0683333
0.36393079 0.04904842 1.0766218
0.37716472 0.047461588 1.0745385
0.33304256 0.064510025 1.0792344
0.34428278 0.061143115 1.0730001
0.31454754 0.077831082 1.0748999
0.30470231 0.081709519 1.0774214
0.31156108 0.08402098 1.0700001
0.30489546 0.097262226 1.0749665
0.31670251 0.098769642 1.0730001
0.33933356 0.10740481 1.0700001
0.3202872 0.11165485 1.0770888
0.33481878 0.11230824 1.0742006
0.34668669 0.11632869 1.0730001
0.36215538 0.11758292 1.0730001
0.34995791 0.1264894 1.0768943
0.36527252 0.12657534 1.0770005
0.378831 0.12828909 1.0762919
0.39494464 0.13056391 1.0749999
0.40379003 0.13249852 1.077
0.40451097 0.14221862 1.0793499
0.36643058 0.042556763 1.0843844
0.37834007 0.041830286 1.0816399
0.33851144 0.057225086 1.0827057
0.35063979 0.052971087 1.0805489
0.32090557 0.069854461 1.0823175
0.3069483 0.072580799 1.0860769
0.27984571 0.087987818 1.087
0.29183215 0.084582336 1.0820224
0.26274234 0.098703243 1.0867214
0.27623954 0.096952081 1.0844032
0.2908338 0.096775502 1.0809842
0.26548812 0.10615714 1.087
0.27719244 0.10700919 1.087
0.29132578 0.1103775 1.0866092
0.30563107 0.11155465 1.0820445
0.30922797 0.12308764 1.087
0.32043368 0.12455758 1.0841501
0.33446085 0.12617426 1.0808154
0.33638668 0.13769935 1.087
0.35252711 0.13833341 1.085923
0.38028067 0.13962482 1.0834134
0.36377403 0.14005582 1.0853751
0.39472792 0.14148109 1.0814344
0.39759284 0.15036477 1.0861818
0.40699151 0.15125927 1.0866667
0.36493343 0.035853539 1.0958983
0.37821156 0.034093276 1.0964285
0.34722 0.047485024 1.0948572
0.35209724 0.04191241 1.0977223
0.32383227 0.057058524 1.0988235
0.33562675 0.052016512 1.0968513
0.30558214 0.068413481 1.0960772
0.31921777 0.063164078 1.093706
0.32967049 0.060200699 1.09
0.28884688 0.078444228 1.0926553
0.29132178 0.07364127 1.0987272
0.26447684 0.086160205 1.0975
0.27576119 0.08358185 1.0945002
0.2468285 0.098785125 1.0974605
0.25822595 0.093696691 1.0936667
0.27424765 0.090778835 1.09
0.2457784 0.1112328 1.0982617
0.26022077 0.1125353 1.0953337
0.27515075 0.11403363 1.0921668
0.28814679 0.11631851 1.09
0.27580371 0.12578376 1.0977631
0.29055083 0.12563163 1.0938367
0.30428889 0.1277526 1.0923401
0.30535936 0.13920461 1.0993028
0.31875619 0.13128531 1.0904446
0.32073972 0.14096437 1.0957055
0.33510873 0.14190833 1.0928141
0.34891248 0.14371844 1.0913686
0.36729848 0.14567155 1.0902354
0.37876868 0.14679295 1.0904444
0.38891563 0.14715727 1.09
0.35047632 0.15415519 1.0983337
0.36443716 0.156736 1.0953515
0.37995088 0.15635069 1.0948077
0.39443532 0.15708642 1.0924318
0.41459242 0.15880336 1.0923848
0.39681232 0.16812062 1.097917
0.40991208 0.1708643 1.0962507
0.41922402 0.17127307 1.0963
0.35039344 0.036333948 1.108683
0.36114466 0.031388395 1.1074166
0.38576221 0.031281535 1.1052144
0.33179319 0.047518946 1.1062499
0.34264955 0.043434449 1.1010001
0.32009903 0.052390389 1.1095438
0.30304119 0.06311778 1.1077331
0.27513826 0.076971263 1.1080799
0.28383398 0.074591182 1.105
0.25500131 0.090172172 1.1060001
0.23419344 0.10546721 1.1008999
0.22886914 0.11275379 1.1062366
0.24072608 0.1186678 1.105
0.24676819 0.12432029 1.1054134
0.25937799 0.1298769 1.1076249
0.26228642 0.12347841 1.1007036
0.27364886 0.13343918 1.103
0.29195061 0.1361962 1.101
0.27557632 0.14122038 1.1086546
0.28970978 0.14317347 1.1059523
0.30466223 0.14695157 1.1054735
0.31483293 0.14821365 1.105
0.32624099 0.14960755 1.1010001
0.32005289 0.15685819 1.1098073
0.33571643 0.15590531 1.1035857
0.34980866 0.16218352 1.1049998
0.36857519 0.16634224 1.1006
0.38039997 0.16526538 1.101
0.36419734 0.17282405 1.1074802
0.38017818 0.17278022 1.1064882
0.39243901 0.17411798 1.1053101
0.4233292 0.17727514 1.105
0.39534011 0.18580911 1.1096399
0.4094204 0.18724371 1.1066365
0.41214466 0.18049426 1.1010001
0.42320436 0.18619309 1.1086925
0.43724012 0.22296351 1.1010001
0.3821339 0.017859979 1.1194001
0.36722553 0.024831153 1.1116666
0.37920973 0.023815079 1.1110539
0.38839027 0.025335886 1.1117501
0.32745692 0.043986749 1.115
0.33716923 0.040906627 1.110258
0.30792102 0.056660358 1.1112498
0.29179588 0.068391509 1.110625
0.26685295 0.073311247 1.115
0.27678886 0.072111972 1.1145998
0.25026271 0.087329708 1.1147271
0.26091096 0.081939034 1.1106279
0.23096517 0.099336304 1.1103611
0.24432155 0.092859305 1.1103598
0.21091284 0.10496593 1.1190001
0.2203413 0.10224026 1.1133749
0.20339905 0.11393834 1.1142058
0.21639682 0.11141798 1.1115083
0.20408441 0.12134389 1.1147499
0.21752183 0.12357759 1.1141818
0.23089425 0.12679856 1.1125325
0.2347046 0.13695627 1.1149999
0.24444011 0.14274588 1.1169026
0.2612482 0.14131036 1.1130372
0.26196554 0.1500437 1.1149999
0.2757034 0.15213159 1.1147776
0.29080248 0.15330483 1.1133748
0.30559468 0.15637358 1.1119021
0.28920865 0.16004992 1.119381
0.30077153 0.16304053 1.1190001
0.31181717 0.16519468 1.115
0.32167348 0.16845298 1.1149999
0.33536869 0.16833857 1.1142333
0.33545589 0.17559719 1.119
0.34498146 0.1769052 1.1190001
0.3505663 0.17138882 1.1108826
0.35287148 0.18186942 1.1149999
0.36574206 0.1846894 1.1138098
0.38046065 0.18448654 1.1116502
0.43261659 0.18736908 1.1190001
0.36345682 0.19190617 1.1190002
0.37915257 0.19194703 1.1190002
0.38847202 0.19325502 1.1190001
0.39948264 0.19548678 1.1141429
0.41044775 0.1984362 1.1121
0.40877676 0.20537309 1.119909
0.42273316 0.20404959 1.1153855
0.43433428 0.20549449 1.1155001
0.42911518 0.2101589 1.115
0.43494803 0.21776545 1.1162858
0.43931681 0.22746025 1.1123749
0.36969143 0.013731815 1.1278889
0.37960237 0.011487246 1.1257353
0.38941413 0.015935199 1.1225667
0.34136292 0.028694468 1.1286668
0.3519671 0.02588214 1.1264282
0.36307397 0.020685092 1.1238419
0.33481717 0.035678644 1.1244748
0.34889826 0.031296682 1.120643
0.31757969 0.04747605 1.1224376
0.32220063 0.04184261 1.1269282
0.29291096 0.057362486 1.1281668
0.30453381 0.052445807 1.125257
0.27524197 0.066160187 1.125
0.28788525 0.063319765 1.1212901
0.25731149 0.078200296 1.1232105
0.26285273 0.072189413 1.1280499
0.23644054 0.087766632 1.1262894
0.24554047 0.082624152 1.1255687
0.2165837 0.097736225 1.1251667
0.23036614 0.092928596 1.1239712
0.19879466 0.10975674 1.1229167
0.2040602 0.10163996 1.1279472
0.17354988 0.11705109 1.1289092
0.1874852 0.11491472 1.1264571
0.17207912 0.1262276 1.1268706
0.18672453 0.12699479 1.1269422
0.20024754 0.12801065 1.1233616
0.17488238 0.13665937 1.1296
0.18530847 0.13813069 1.1293042
0.20244573 0.13984802 1.1284616
0.21442488 0.13026522 1.1208694
0.21606328 0.14118446 1.1261605
0.23084979 0.14288977 1.1224041
0.21695839 0.15449329 1.1298223
0.23147514 0.15540174 1.129059
0.24568279 0.15689705 1.125509
0.26042181 0.15743993 1.1230816
0.27500552 0.15936697 1.1206427
0.29034457 0.16967392 1.1271112
0.26107958 0.17025772 1.129282
0.27543673 0.17034447 1.127479
0.30490342 0.17161351 1.1244807
0.31896704 0.17373553 1.1206486
0.32137826 0.18445417 1.1278054
0.33508006 0.18624824 1.1238137
0.34872663 0.18721534 1.1207
0.33843669 0.19677976 1.1294668
0.35151118 0.19917297 1.1280977
0.36468515 0.20157556 1.1255399
0.38010558 0.20072436 1.1230981
0.39409202 0.20175502 1.1202884
0.36450598 0.21072185 1.1299998
0.3795169 0.21121348 1.1299999
0.39621004 0.21468711 1.1266409
0.40977868 0.2160309 1.1248248
0.42408645 0.21682335 1.121695
0.41327167 0.22651513 1.1297144
0.42533404 0.22980437 1.127108
0.43784255 0.23184352 1.124375
0.44895154 0.24128848 1.128
0.37882772 0.0040952354 1.137741
0.39153698 0.005552744 1.1389285
0.36094946 0.015495208 1.1351429
0.35020292 0.020218939 1.1388574
0.31981331 0.03654604 1.1377355
0.33091685 0.031874985 1.1363
0.30304101 0.046850633 1.1371254
0.3131541 0.0447363 1.1340001
0.28034925 0.058447365 1.13
0.29106185 0.052284833 1.1394595
0.2605063 0.066642806 1.1395954
0.27101672 0.061860815 1.136111
0.24323291 0.075886019 1.1339999
0.25162086 0.074297503 1.13
0.23078281 0.081516005 1.1391318
0.21406732 0.092691474 1.1369447
0.18506284 0.10836975 1.1375164
0.19452006 0.10504746 1.1340001
0.17167667 0.11241943 1.1390514
0.15586346 0.12608741 1.1380579
0.16341358 0.12553546 1.132
0.17050613 0.14215587 1.1367955
0.18713073 0.14487632 1.1356299
0.1976808 0.14596616 1.1344707
0.2040146 0.15380159 1.1341161
0.21267854 0.16039318 1.1350908
0.22898357 0.16204482 1.1340001
0.24864896 0.16543576 1.13
0.24551614 0.17176011 1.1371332
0.25758788 0.17439924 1.1344707
0.27309495 0.17756233 1.1351429
0.28233051 0.17930463 1.13
0.29053742 0.17770253 1.1339999
0.27577931 0.18690833 1.1391536
0.29064721 0.18588819 1.1367608
0.30679503 0.18410027 1.1330366
0.31713071 0.19030681 1.1339999
0.32049221 0.20065644 1.1397039
0.33413836 0.20283647 1.136925
0.34705785 0.20579971 1.13475
0.35563737 0.20902362 1.13
0.35032964 0.21560104 1.1390588
0.36468169 0.21871154 1.135484
0.37986171 0.21787703 1.1348238
0.39132529 0.21956262 1.1344707
0.39490956 0.23055795 1.1379273
0.40923637 0.23204182 1.1352308
0.42250952 0.23622292 1.1339999
0.44281313 0.23973326 1.13
0.42467007 0.24581732 1.13832
0.43959367 0.24669348 1.1364285
0.45096791 0.24893518 1.13525
0.38639888 -0.001839685 1.1443334
0.36655757 0.0099994335 1.1410004
0.35634309 0.013049183 1.1450001
0.32622957 0.029109716 1.1450001
0.33581588 0.026638363 1.1412226
0.30811554 0.04154836 1.1420625
0.26650447 0.058721323 1.1450001
0.27672312 0.056096219 1.1411542
0.2473238 0.071989179 1.1416001
0.20778315 0.089336716 1.1450001
0.21768002 0.087357074 1.1426319
0.20120546 0.097344428 1.1403515
0.18771164 0.10162353 1.1435001
0.15008621 0.11986751 1.149
0.16008687 0.1165771 1.1418
0.14289251 0.12906086 1.1402975
0.12840064 0.13910763 1.1450003
0.132834 0.132834 1.1450001
0.14218476 0.13929458 1.1410003
0.13977566 0.14706618 1.1496155
0.15781668 0.14550942 1.1425755
0.17298669 0.15189935 1.1431432
0.18641333 0.15669432 1.1418914
0.18030491 0.16217369 1.149
0.20247765 0.16794217 1.1441307
0.21647288 0.16972338 1.1415229
0.21489534 0.17710793 1.1495
0.23075047 0.17110945 1.1400384
0.23421611 0.18001181 1.1450001
0.24714723 0.1814217 1.1439095
0.26157567 0.18533823 1.1410279
0.26650447 0.19523585 1.1450001
0.27682778 0.19907829 1.1437099
0.28952891 0.19937241 1.1442504
0.3057929 0.19873895 1.1436743
0.27455333 0.2052674 1.1498421
0.29198819 0.20649442 1.149
0.30431351 0.20671828 1.149
0.32192764 0.21007751 1.1450001
0.33516851 0.21585147 1.146771
0.34415743 0.22193956 1.149
0.35433552 0.22621623 1.1450002
0.3647269 0.22892813 1.1443146
0.3661499 0.23570585 1.149
0.37370458 0.23570585 1.149
0.38007048 0.23092657 1.1414511
0.38373318 0.24220154 1.1444669
0.39535809 0.24537706 1.146331
0.41084677 0.24360806 1.1419027
0.40848964 0.25135243 1.149
0.41802534 0.25282979 1.149
0.42690867 0.25550365 1.1447335
0.43989217 0.2583403 1.1435519
0.4385305 0.26515347 1.1491905
0.45208716 0.26328158 1.1453431
0.39235488 -0.019586664 1.1596667
0.38123876 -0.0060607144 1.1568787
0.39245862 -0.0079738107 1.1546
0.36424521 0.0044405288 1.1544547
0.37402806 0.0015118117 1.1500001
0.33486339 0.019714458 1.1543654
0.34667495 0.017007332 1.151
0.35161939 0.010454084 1.1567497
0.32291043 0.026619574 1.1577691
0.30492273 0.03643721 1.1555777
0.31759405 0.032767419 1.1527144
0.2755492 0.04985572 1.1557028
0.28870705 0.046919636 1.151
0.2907894 0.04044671 1.1579695
0.26190963 0.054941256 1.1566756
0.24617772 0.066635154 1.1556339
0.25628102 0.06226147 1.1526923
0.22884375 0.077540949 1.1525
0.23310079 0.072321206 1.1583332
0.20463757 0.08597599 1.1586469
0.2152568 0.080963962 1.1557498
0.18553016 0.096128397 1.1555363
0.19881542 0.092577457 1.1541666
0.16931285 0.10708156 1.1533636
0.17457153 0.10134933 1.1581764
0.14271471 0.11687298 1.1592855
0.15613109 0.11125794 1.1553831
0.12767164 0.12891209 1.1551539
0.13997528 0.12331844 1.152724
0.11389685 0.1315493 1.1587499
0.10013779 0.14109017 1.1578692
0.11149903 0.14111486 1.154695
0.12504391 0.14301865 1.1502938
0.10133602 0.15120783 1.1575716
0.11192238 0.15345813 1.1579143
0.12685658 0.15713517 1.1572498
0.14154734 0.15675841 1.1543819
0.15609819 0.1573171 1.1517552
0.17031525 0.15894783 1.1508181
0.14378141 0.16861416 1.1597368
0.15679082 0.17034815 1.1577827
0.17107546 0.17108446 1.1547143
0.1854489 0.17089213 1.1518457
0.19954802 0.17403156 1.1517199
0.1731087 0.18149467 1.1589999
0.18576637 0.18189868 1.1585238
0.20123446 0.18393283 1.1594865
0.21604359 0.18564671 1.1579165
0.23058528 0.18704271 1.1547562
0.24515693 0.18864931 1.1511332
0.24578138 0.19979513 1.158524
0.25758049 0.19130626 1.1508462
0.26100191 0.20154831 1.1552643
0.27666596 0.21552128 1.1575332
0.28990549 0.21638682 1.1556314
0.3049624 0.21667464 1.153941
0.319985 0.2171049 1.1505808
0.32131746 0.23080689 1.1595832
0.33568549 0.23099157 1.1542
0.34961161 0.23217461 1.1511273
0.3508766 0.24450053 1.1581161
0.36510032 0.2447847 1.1532552
0.37902173 0.24659701 1.1513153
0.39479664 0.26095846 1.1557636
0.40994984 0.26104441 1.1518
0.42341059 0.26274592 1.1504998
0.4109053 0.27306128 1.1584665
0.39321384 -0.021773696 1.1683336
0.39933482 -0.0122558 1.1650001
0.36957198 -0.0015989147 1.1604288
0.3768675 -0.0099724485 1.1663338
0.34917286 0.0043655657 1.1687335
0.3587881 0.0015328516 1.166
0.32939202 0.016690273 1.1656667
0.3385236 0.012824406 1.161
0.31602094 0.024993896 1.165293
0.29950088 0.032198653 1.1660001
0.27064893 0.045959249 1.1650001
0.28030485 0.04295158 1.161
0.25139907 0.058015171 1.161
0.24295923 0.062225275 1.1687334
0.22366835 0.07455612 1.1650001
0.19033048 0.088549472 1.161
0.18112372 0.091366313 1.1672858
0.15262571 0.10660858 1.1665
0.16284961 0.10279881 1.161
0.1333331 0.11908377 1.161
0.1249122 0.12261939 1.1675602
0.097191647 0.13504349 1.1670001
0.11581375 0.16171932 1.1654286
0.12614234 0.17150821 1.1677825
0.1398558 0.17414418 1.1662004
0.15503587 0.1781176 1.1650001
0.17058566 0.18832819 1.1673032
0.18662818 0.19046365 1.1678389
0.19993322 0.19190459 1.1661428
0.21583402 0.19351102 1.1630001
0.23270127 0.19714239 1.160259
0.21509729 0.20134053 1.1685352
0.22972739 0.20383014 1.1661856
0.245116 0.20732726 1.1650001
0.25989947 0.21805821 1.1688949
0.26183569 0.21067572 1.160077
0.27103835 0.21953103 1.1658
0.28367594 0.22635478 1.1610001
0.29720315 0.22162572 1.1650001
0.30885372 0.22616096 1.1606365
0.29143479 0.23188399 1.1664548
0.30451718 0.23236182 1.1662635
0.31471142 0.23592414 1.1650001
0.3241725 0.23969425 1.161
0.31931624 0.24612157 1.1677321
0.33543718 0.2447252 1.1636114
0.34781504 0.25135738 1.1650001
0.36702222 0.25597921 1.1609999
0.38044241 0.25982952 1.1601485
0.35009086 0.26043546 1.1694446
0.36295524 0.26261351 1.1660815
0.37550408 0.264521 1.1650001
0.38167876 0.26971966 1.161
0.38019383 0.27554578 1.1685838
0.3950727 0.27446929 1.16342
0.37146121 -0.01547755 1.177
0.38232967 -0.018166741 1.1712073
0.35503244 -0.0017168055 1.1750001
0.36536846 -0.0066330181 1.1707275
0.3358534 0.0093013775 1.1713753
0.32502857 0.013413876 1.177
0.29314056 0.027150165 1.1739231
0.30628216 0.025322057 1.1714765
0.27577481 0.039405018 1.1717371
0.28918409 0.033433553 1.170067
0.25945866 0.048969727 1.1701854
0.26439333 0.042987827 1.1751819
0.23732242 0.05881469 1.177
0.24762264 0.055191971 1.1736453
0.21772529 0.069827743 1.1743796
0.23074141 0.066315025 1.1708097
0.21419315 0.075298831 1.1702001
0.17850775 0.087706119 1.177
0.18757747 0.084962144 1.1711822
0.20008145 0.081799015 1.1713592
0.15729065 0.099783227 1.1713033
0.17115368 0.095413573 1.171
0.14587952 0.10361104 1.1760001
0.11762938 0.11866122 1.177
0.12767269 0.11631445 1.1731907
0.14131834 0.11044029 1.1701283
0.10088417 0.12933989 1.1710001
0.11175788 0.12611613 1.1706845
0.11322507 0.17088649 1.1711539
0.11650304 0.1863711 1.1738423
0.12659144 0.1850948 1.1750002
0.14113687 0.18585342 1.172913
0.15634733 0.18702209 1.1710001
0.11548267 0.19977501 1.1726191
0.15987076 0.19583963 1.175182
0.17215267 0.19924155 1.1741252
0.1217342 0.20518437 1.1738001
0.18633741 0.2057465 1.1750478
0.20092955 0.2011385 1.1723495
0.2053355 0.21064207 1.177
0.21665558 0.21315204 1.1754867
0.2310127 0.21521628 1.1745819
0.24596047 0.21544234 1.1713113
0.23658541 0.22597225 1.177
0.24680643 0.22724289 1.1768519
0.26074272 0.23157437 1.175432
0.27460209 0.23184179 1.1710001
0.26311833 0.24041793 1.177
0.27828118 0.2437212 1.1762002
0.29003227 0.2460231 1.1743605
0.30578056 0.24568865 1.1736795
0.31099558 0.25568911 1.177
0.32152048 0.25767967 1.176077
0.3353323 0.26052684 1.1738632
0.34050608 0.27034122 1.177
0.350849 0.27372074 1.1758294
0.36480227 0.27552283 1.1727554
0.36874086 0.28506833 1.177
0.39660856 -0.031827185 1.1881111
0.37850964 -0.02208594 1.1840909
0.39096689 -0.027132455 1.1838572
0.36461508 -0.014827942 1.1842772
0.33833587 -0.0018228091 1.1875
0.35127568 -0.0047532865 1.1849997
0.32143971 0.0090755643 1.1851289
0.33350122 0.0041086115 1.1832221
0.34580469 0.0010353433 1.1810001
0.30713052 0.015388727 1.1849722
0.31577972 0.015530149 1.1810001
0.28013334 0.026840683 1.189
0.29024723 0.023135068 1.1857406
0.27498895 0.032457199 1.1848332
0.28471941 0.030024957 1.1810001
0.24452832 0.049133938 1.1847497
0.25232744 0.044644691 1.1845001
0.26080304 0.040052399 1.1856151
0.2209796 0.059414331 1.189
0.23208496 0.05530021 1.1862121
0.2149471 0.06515789 1.1844999
0.22632606 0.061913531 1.1810001
0.1846302 0.079562798 1.1844072
0.19571826 0.074466802 1.1860001
0.20234399 0.071799397 1.1869998
0.16121782 0.087905407 1.189
0.17288709 0.08396063 1.1867645
0.15506323 0.094194509 1.1854284
0.16751854 0.090489008 1.1810001
0.13440308 0.10451028 1.1862501
0.14241523 0.10044622 1.186565
0.10284615 0.1163512 1.1850001
0.11233823 0.11591607 1.1861198
0.12706198 0.1105617 1.1856248
0.10500082 0.12139279 1.1835334
0.11906448 0.19567989 1.1810001
0.12772371 0.19210325 1.181
0.13977134 0.19360919 1.1810001
0.12868525 0.20093933 1.1837499
0.14194101 0.2017331 1.1850001
0.15589844 0.20219672 1.1827648
0.17073797 0.20598625 1.1824285
0.19567989 0.20810401 1.1810001
0.12970211 0.21200211 1.1883334
0.14150225 0.21131945 1.1885998
0.15700075 0.2127011 1.1874996
0.17128718 0.21564181 1.1860436
0.18649264 0.21743248 1.1839271
0.20085296 0.21702725 1.1844592
0.17685318 0.22549649 1.189
0.18711244 0.22872689 1.1887237
0.20129907 0.22721264 1.1886519
0.21496889 0.22119218 1.1823332
0.23019134 0.22259881 1.1810001
0.21708474 0.23442098 1.1885608
0.23070931 0.2314464 1.1858371
0.24528481 0.23456001 1.1827391
0.2539455 0.2352906 1.1823335
0.23204847 0.24157858 1.1889998
0.24697869 0.24544196 1.1887138
0.26103997 0.24763714 1.1856668
0.27366507 0.24897957 1.1824546
0.26371622 0.25607228 1.189
0.27609479 0.2587831 1.1868821
0.29099607 0.26141059 1.1851948
0.30507386 0.26166373 1.184289
0.31940344 0.26487532 1.1809999
0.32889405 0.26746368 1.1810001
0.29472634 0.27127334 1.189
0.307493 0.27155569 1.1883334
0.3209286 0.27335948 1.1859598
0.33614886 0.27602884 1.1846921
0.3392871 0.28508455 1.189
0.34762695 0.28100237 1.1813334
0.35060564 0.28944403 1.1856998
0.39422834 -0.037456535 1.1987728
0.4029949 -0.03349831 1.194
0.36423507 -0.022493936 1.198543
0.3786422 -0.027123407 1.1956252
0.38906115 -0.02823831 1.1930001
0.34915793 -0.010590736 1.1953108
0.35873112 -0.013596224 1.1930001
0.33492559 -0.0075579672 1.1980001
0.30458844 0.0070665558 1.1994667
0.31838793 0.0036466876 1.1967604
0.33153868 0.0010458634 1.1930001
0.28863874 0.017703054 1.1951001
0.30016276 0.01568795 1.1930001
0.27557936 0.022533182 1.1987001
0.26442361 0.03238038 1.194845
0.22944534 0.048824906 1.1978753
0.24054857 0.044972122 1.1930001
0.20116568 0.064427383 1.1987894
0.21288353 0.061172262 1.1962501
0.16988267 0.078309566 1.1985002
0.18063921 0.075119518 1.1956667
0.14088266 0.094183087 1.1990604
0.15025569 0.091687351 1.1930001
0.11322209 0.10800146 1.1977589
0.12316491 0.10661854 1.1946999
0.14062873 0.21879688 1.1946005
0.13194346 0.22000739 1.1958572
0.1558309 0.22007772 1.1940001
0.16420054 0.22172302 1.1930001
0.17054255 0.23112449 1.1965129
0.1842415 0.23550129 1.194474
0.20201568 0.23432706 1.1934804
0.21189192 0.23657429 1.1930001
0.21604493 0.24584875 1.1956747
0.22969912 0.24853404 1.1934142
0.24290176 0.25126866 1.193
0.24578933 0.26064393 1.1974002
0.2602616 0.26195168 1.1935164
0.27349326 0.26530066 1.193
0.28552067 0.26669514 1.1930001
0.27523023 0.27510968 1.1969348
0.28920212 0.27648312 1.1946002
0.30565539 0.27754831 1.1939147
0.31973535 0.27999255 1.193
0.32031468 0.28990611 1.19751
0.33153868 0.28133723 1.1930001
0.33453798 0.29093805 1.1944225
0.39647248 -0.04546218 1.2060001
0.37004101 -0.03066054 1.2060001
0.38088387 -0.03202555 1.2028421
0.34149498 -0.0158589 1.2060001
0.35181609 -0.017257292 1.202
0.32402036 -0.002900342 1.2019999
0.29303172 0.010383307 1.2033845
0.25268513 0.02854602 1.2060001
0.26309913 0.026929064 1.2046877
0.24682429 0.037601106 1.2005264
0.23401457 0.042227503 1.2042501
0.20334633 0.058149297 1.2060001
0.21855235 0.05435124 1.2023214
0.18726493 0.068658739 1.2005854
0.17596374 0.070749708 1.2045455
0.14637123 0.087031849 1.2033751
0.15672413 0.083698094 1.2006844
0.11258366 0.099463917 1.2049474
0.12715884 0.099603131 1.2006364
0.14346206 0.22998464 1.2016252
0.15603471 0.23112507 1.2012156
0.14690422 0.24285185 1.2026668
0.15590236 0.24374267 1.2050859
0.17205495 0.24383776 1.2040571
0.18737987 0.24594431 1.2031894
0.20134738 0.24599387 1.2013094
0.19189268 0.2553283 1.2060001
0.2015522 0.25556853 1.2060002
0.21736263 0.25673589 1.2051579
0.23424518 0.2649118 1.2035921
0.24802436 0.27417204 1.2048749
0.26054475 0.27531552 1.2026528
0.26748678 0.28440294 1.2060001
0.27749479 0.28773487 1.2046151
0.29032937 0.28927657 1.2042667
0.30630624 0.29537427 1.2042445
0.38655478 -0.043587364 1.2125715
0.39214844 -0.046947602 1.2116001
0.35534757 -0.033110198 1.2182857
0.36504495 -0.034626253 1.2136288
0.38043153 -0.039318822 1.2120607
0.35064173 -0.023113344 1.2144414
0.36146578 -0.02712295 1.2110909
0.33421594 -0.015222002 1.2129376
0.29647505 -0.0010664649 1.2165
0.30539152 -0.0035535691 1.2144998
0.3202219 -0.0075135343 1.2135429
0.28933245 0.0064167776 1.2132224
0.30444002 0.0010607666 1.21
0.27586299 0.015245795 1.2150048
0.24752267 0.026421284 1.2154499
0.26011285 0.022692937 1.2127824
0.23116231 0.037836965 1.2135357
0.24236664 0.033046003 1.2107999
0.21678363 0.045902796 1.2143101
0.22382176 0.045612965 1.21
0.18831679 0.057333879 1.2175714
0.20154117 0.054442052 1.2146667
0.17186914 0.067777582 1.2157
0.18488203 0.062159669 1.2120624
0.15535337 0.077727959 1.2164999
0.16391063 0.0742229 1.2165
0.13215719 0.087273628 1.219
0.14187288 0.082859896 1.2151515
0.11603445 0.095164008 1.2143
0.12628926 0.093334354 1.2144762
0.13641985 0.090770066 1.2110001
0.15866622 0.25414664 1.2140677
0.16998786 0.25113651 1.21
0.17181668 0.25973538 1.21545
0.18245186 0.25140169 1.21
0.17675582 0.26908773 1.2190001
0.18575673 0.26063958 1.2125123
0.20124234 0.26251331 1.2116774
0.2149263 0.26319113 1.2109228
0.22541291 0.26572204 1.21
0.18716472 0.27107811 1.2184443
0.20130889 0.2724463 1.2171251
0.2176456 0.27425459 1.2160912
0.23038769 0.27525654 1.2118407
0.24166758 0.27785847 1.21
0.22228059 0.28319401 1.2190001
0.23203993 0.28625813 1.217889
0.24705441 0.28918028 1.2158184
0.25327164 0.29815522 1.2190001
0.26047289 0.2902514 1.2127427
0.272686 0.29310918 1.2107618
0.29065007 0.2959539 1.21
0.26253331 0.30043504 1.219
0.27527997 0.30429038 1.2152828
0.28991354 0.30372447 1.2113568
0.34947866 -0.033065669 1.2266251
0.3350715 -0.024321919 1.2293901
0.34734607 -0.027753586 1.2254168
0.3050504 -0.010667638 1.2295924
0.31706783 -0.012599641 1.2266428
0.27513161 0.0067023016 1.2281066
0.28632042 0.0030238626 1.2249089
0.25967187 0.017530002 1.2243333
0.269113 0.016082451 1.223
0.24563646 0.021090845 1.2278665
0.21560626 0.037703469 1.2291516
0.22887854 0.033131998 1.227579
0.19983679 0.048192762 1.2245262
0.20978661 0.046817798 1.223
0.15607187 0.067931093 1.2274046
0.16783349 0.063812561 1.2239999
0.12718147 0.08446604 1.2298064
0.11677779 0.090538099 1.2266001
0.12222662 0.091133885 1.223
0.157474 0.26375219 1.2229998
0.16618532 0.26696867 1.223
0.16137297 0.27388522 1.2251251
0.17068875 0.27586329 1.2252859
0.184974 0.27863047 1.2235515
0.20075513 0.27988324 1.2232103
0.21210967 0.27965596 1.2229999
0.21588552 0.29144886 1.2267295
0.2298851 0.29369959 1.2243792
0.2422114 0.29523477 1.2229999
0.24576606 0.3056697 1.2278861
0.25958949 0.30725878 1.2241377
0.2717934 0.31146345 1.223
0.34075683 -0.031861573 1.2320001
0.30794773 -0.016686823 1.2360001
0.32246435 -0.019929655 1.2319311
0.28064203 -0.0010835599 1.2360001
0.29258811 -0.0053345435 1.2301562
0.26168352 0.0092116976 1.2315388
0.25063986 0.013533103 1.2350001
0.23322408 0.027706522 1.2313334
0.19179012 0.044425961 1.2360001
0.20164178 0.041875333 1.2327917
0.162534 0.059595801 1.2360001
0.17323834 0.056659933 1.2322727
0.18635638 0.051813092 1.2300293
0.13946013 0.077202588 1.2312632
0.14413819 0.071019441 1.2330002
0.11374092 0.087184936 1.2309002
0.16361757 0.28497627 1.2360001
0.17220908 0.29102388 1.2336189
0.18627119 0.29101998 1.23035
0.20100635 0.29124665 1.2309511
0.17553671 0.30014613 1.2360001
0.189623 0.30014613 1.2360001
0.20060307 0.3031801 1.2360001
0.21631752 0.30313668 1.2344445
0.23108511 0.30518237 1.2321173
0.23567431 0.31369063 1.2360001
0.24743216 0.31760412 1.2352002
0.31815448 -0.022741757 1.245
0.28925094 -0.010153197 1.2454445
0.29392648 -0.018555593 1.2450714
0.30513948 -0.019869283 1.2409998
0.26449749 -0.0041755638 1.2441667
0.27590984 -0.0047899382 1.2447307
0.25836557 0.0041453475 1.2449335
0.24499778 0.014244397 1.2451389
0.21795018 0.027738502 1.247
0.23082732 0.022584205 1.2450302
0.20093457 0.035448562 1.2449629
0.21317737 0.033046924 1.2427778
0.18512861 0.044199809 1.2439607
0.15952519 0.056676764 1.2481
0.17169021 0.050873328 1.2457931
0.14077312 0.067327902 1.2448
0.15342484 0.061441332 1.2441667
0.12586167 0.078624174 1.2425452
0.13066648 0.071835719 1.2478889
0.11818155 0.080496669 1.2432858
0.1768 0.30458996 1.2423334
0.1868967 0.30703703 1.2441428
0.20061676 0.30832312 1.2409998
0.21497759 0.30973747 1.2409998
0.18794249 0.3154901 1.2492307
0.20203038 0.31878808 1.2461667
0.22592957 0.31151444 1.2410001
0.2164226 0.32015902 1.2458786
0.23060806 0.32107529 1.2439046
0.2850306 -0.014626083 1.2562667
0.24560311 0.0066184578 1.2591431
0.25641316 0.0016529551 1.2580001
0.22891188 0.01718512 1.2566
0.20367539 0.027278211 1.254389
0.21545275 0.021221569 1.2588236
0.18641721 0.035115026 1.2582583
0.19641335 0.031571105 1.2563335
0.16731068 0.047354095 1.2562308
0.17583661 0.041576989 1.2548751
0.15587527 0.05235688 1.2587422
0.12661403 0.067770526 1.2574142
0.14108554 0.062687643 1.2573127
0.12212405 0.075914949 1.2550001
0.18043554 0.31136131 1.2550001
0.18714847 0.32111409 1.2561767
0.19865024 0.32529742 1.2550001
0.21014138 0.32676435 1.2550001
0.254922 -0.0047371909 1.2640424
0.21231815 0.0166742 1.268
0.22162133 0.014405387 1.2640001
0.2322105 0.012555157 1.261706
0.19170246 0.027702667 1.2640001
0.18203107 0.031000184 1.2694285
0.15372048 0.047259986 1.2698182
0.16289169 0.043216161 1.2640001
0.14499666 0.057396866 1.2625715
0.1279346 0.061631598 1.2690001
0.13561682 0.061138734 1.268
0.19183886 0.32947168 1.2620001
0.24634477 -0.0030990166 1.2741112
0.23108882 0.0058772909 1.2746665
0.24164265 0.0027380688 1.2734544
0.19940133 0.019601932 1.2727619
0.20397194 0.012985012 1.277
0.21609211 0.011699803 1.2743044
0.17814042 0.0280095 1.2780001
0.18713401 0.024210773 1.2748518
0.1707729 0.035433441 1.2732084
0.144529 0.04369482 1.2780001
0.15681647 0.041159902 1.2752727
0.12930477 0.05620078 1.2747647
0.1414417 0.051949814 1.2735131
0.23170125 -0.0011247633 1.2830001
0.24407364 -0.00337429 1.2830001
0.20063582 0.0093240272 1.2864093
0.2165136 0.0051849573 1.2870002
0.22490215 0.0029252612 1.2840002
0.18547052 0.016045311 1.2866048
0.19458406 0.01687145 1.2830001
0.15684059 0.034524482 1.2878751
0.16924061 0.031256564 1.2848752
0.12984046 0.049601741 1.2879335
0.1368462 0.046865139 1.2830001
0.14198568 0.040826369 1.2881054
0.20252474 0.004169865 1.2978333
0.21350606 0.0014631568 1.2984285
0.16876535 0.014724493 1.2920001
0.17510363 0.016487032 1.2970001
0.16159187 0.024540821 1.2919999
0.17071547 0.023049412 1.2910001
0.13073349 0.039858624 1.2992224
0.15225035 0.031178474 1.2980001
0.12494218 0.048473705 1.298
0.13071889 0.043572962 1.2910001
0.21426523 -0.0011458034 1.307
0.14780863 0.027499281 1.307
0.15536904 0.024199337 1.3002692
0.14222482 0.035505783 1.302263
0.13277555 0.02424597 1.317
0.14242108 0.025948018 1.3155
0.15067445 0.021853546 1.312
0.13549492 0.032722995 1.3122779
