# .PCD v0.7 - Point Cloud Data file format
VERSION 0.7
FIELDS x y z rgb
SIZE 4 4 4 4
TYPE F F F U
COUNT 1 1 1 1
WIDTH 1120
HEIGHT 1
VIEWPOINT 0 0 0 1 0 0 0
POINTS 1120
DATA ascii
-0.94367993 0.68451095 1.7390001 4283520592
-0.93025094 0.67799425 1.7360001 4283323465
-0.91651136 0.67287552 1.7326 4283652688
-0.95964301 0.69380599 1.7355717 4283389261
-0.94631374 0.68942982 1.7338573 4283520336
-0.93630368 0.68743205 1.7310001 4283323469
-0.96354812 0.70882785 1.7363336 4283257161
-0.97115821 0.72098386 1.7358 4282928203
-0.96411729 0.7209937 1.7360002 4283125577
0.94640636 -0.31708243 1.7570001 4286808186
0.89261627 -0.29958987 1.7525001 4286279786
0.90170878 -0.30262503 1.7522631 4286544498
0.91733783 -0.30305281 1.75325 4286939520
0.93219268 -0.30490649 1.7523042 4286808186
0.94278854 -0.30608785 1.7497997 4286742650
0.87520152 -0.28473708 1.7525001 4286082405
0.8876316 -0.28969067 1.7511499 4286214251
0.90041941 -0.29358408 1.7487499 4286280815
0.91638309 -0.29473418 1.748 4287202179
0.92864245 -0.29575577 1.748 4286873728
0.84254587 -0.2701692 1.7570002 4285819747
0.85953939 -0.27393174 1.7545456 4286016872
0.87072021 -0.27875289 1.7507691 4286147689
0.88420248 -0.28043163 1.748 4286214764
0.8117398 -0.25599843 1.7570002 4285950566
0.82633674 -0.26074481 1.7524998 4285884260
0.84162438 -0.26450524 1.7486922 4285950309
0.85294133 -0.26694641 1.7479999 4285951593
0.7809338 -0.23874702 1.7570001 4286212715
0.79857707 -0.24450828 1.751375 4286147175
0.81042409 -0.25094786 1.7490001 4285885286
0.82137358 -0.25284821 1.748 4285884000
0.75605547 -0.22741346 1.7544286 4286476912
0.7688396 -0.2301529 1.751857 4286344814
0.78191388 -0.23484235 1.748 4286212713
0.7937901 -0.23752406 1.748 4286278506
0.72574258 -0.21332504 1.7529091 4286607471
0.73662227 -0.21807414 1.75175 4286674036
0.74877435 -0.22248594 1.75025 4286673520
0.76429117 -0.21951818 1.748 4286411374
0.69519818 -0.19704092 1.7525001 4286343790
0.70697427 -0.20317349 1.7520909 4286606957
0.71984309 -0.20645663 1.7518572 4286343528
0.66772151 -0.18098564 1.7570001 4287135100
0.67875838 -0.1843638 1.7524999 4286805874
0.69090855 -0.19077024 1.7513751 4286541165
0.64903903 -0.17050451 1.7521536 4287134589
0.66250569 -0.17580158 1.7513751 4287069306
0.60357893 -0.15116978 1.7570001 4286936180
0.62072051 -0.15184641 1.7555 4286870645
0.63319349 -0.1571492 1.7524998 4287134329
0.6420812 -0.16090339 1.748 4287135098
0.57838392 -0.13785715 1.7570001 4286935154
0.58863354 -0.14057468 1.7537858 4286935664
0.60028863 -0.14452399 1.7520909 4286936180
0.61606038 -0.14587592 1.7516 4287002233
0.62675703 -0.14864409 1.748 4286739059
0.54680771 -0.12168396 1.7570001 4287132535
0.56141812 -0.12319286 1.7545456 4287132529
0.57416898 -0.13065962 1.7534 4286935150
0.58384949 -0.13331996 1.748 4287000430
0.51600164 -0.10628093 1.7570001 4287264377
0.53069037 -0.10901276 1.7555 4287132788
0.54277235 -0.11488742 1.7527647 4287131764
0.55717939 -0.11778878 1.7525001 4287066482
0.48827615 -0.090877898 1.7570001 4287330164
0.50066793 -0.091691568 1.7557143 4287461494
0.51220971 -0.09758848 1.7535715 4287330170
0.52577293 -0.10104267 1.7516 4287395445
0.47492686 -0.076501735 1.7570001 4287592315
0.48502085 -0.081424318 1.7553636 4287460980
0.49781418 -0.08425431 1.7518569 4287395189
0.42820433 -0.06007183 1.7570001 4287789950
0.44005749 -0.062157217 1.7556155 4287527033
0.45467886 -0.063712969 1.7535 4287394680
0.46955964 -0.067885511 1.7527647 4287658113
0.47964537 -0.072023429 1.748 4287526776
0.41039255 -0.050275814 1.7555 4287921544
0.42365009 -0.0533568 1.7521999 4287723908
0.43952405 -0.054748952 1.7479999 4287264133
0.45390081 -0.056086324 1.7479999 4286738049
0.38507584 -0.032346372 1.7570001 4284908021
0.39661646 -0.037165221 1.7546316 4284972747
0.40751287 -0.039187092 1.7489997 4284907209
0.3677755 -0.020677874 1.7563572 4282745592
0.38022125 -0.023064414 1.7534783 4282352120
0.39162621 -0.025355289 1.7486922 4282417655
0.35581008 -0.01386273 1.7570001 4282614781
0.36627266 -0.013850895 1.7555002 4282418430
0.38151196 -0.013844977 1.75475 4282286585
0.14401837 0.10243017 1.7570001 4284516585
0.15094973 0.10320032 1.7570001 4282944511
0.10320032 0.11860336 1.7570001 4289039250
0.11282722 0.11744813 1.7570001 4289236878
0.12836778 0.11337349 1.7536249 4289368471
0.14082231 0.10872357 1.7512729 4284648412
0.14940943 0.10628093 1.7570001 4282943999
0.086256988 0.1340064 1.7570001 4289764515
0.097988479 0.1287217 1.7528462 4289697692
0.1092525 0.12305409 1.7491251 4289696918
0.12106065 0.12106065 1.748 4289368214
0.068590723 0.1445864 1.7529091 4289961377
0.080192678 0.13948637 1.7514615 4289895328
0.091944799 0.13638479 1.748 4289895071
0.041555502 0.15985315 1.7557144 4289698205
0.052624408 0.15549383 1.7535386 4289961379
0.062087409 0.15203917 1.7518572 4290092705
-0.0077015166 0.17713489 1.7570001 4289434258
0.010247649 0.17580557 1.7540001 4289632413
0.022676686 0.16942182 1.7522352 4289698206
0.035707008 0.16584015 1.7492858 4289631904
-0.032346372 0.19099762 1.7570001 4289433748
-0.022249917 0.18892531 1.7539999 4289368207
-0.0079636397 0.1834237 1.7529091 4289434515
0.005520633 0.18202272 1.7507 4289435033
-0.051343445 0.20691408 1.7570001 4289236880
-0.038808335 0.20055446 1.7530625 4289302415
-0.025565209 0.19580512 1.7495002 4289302419
-0.090877898 0.22334398 1.7570001 4289434262
-0.081557706 0.22003564 1.7552 4289171857
-0.066519447 0.21563219 1.7521536 4289236619
-0.052827053 0.21282645 1.7516 4289236621
-0.044439986 0.20994063 1.748 4289301908
-0.10782123 0.23566641 1.7570001 4289302935
-0.096504033 0.23215976 1.7538234 4289303186
-0.083533302 0.22690962 1.7505715 4289105547
-0.12433027 0.24957685 1.7552 4289434518
-0.1126266 0.24424709 1.7533181 4289368727
-0.10203764 0.24089463 1.7502501 4289106063
-0.18124236 0.26544562 1.7570001 4289171088
-0.16932049 0.26310807 1.7539999 4288974223
-0.15601055 0.26327068 1.7538234 4288908942
-0.14249748 0.26050049 1.7517893 4288908685
-0.12918226 0.25747484 1.7512143 4289303699
-0.11799583 0.25591302 1.748 4289434008
-0.19781896 0.27879491 1.7570001 4288579465
-0.18621445 0.27497846 1.7541363 4288908687
-0.17312723 0.27217099 1.7504547 4288973964
-0.15708785 0.27067581 1.751 4288974220
-0.22796489 0.29727855 1.7570001 4288775308
-0.21701159 0.2938256 1.7525001 4288513163
-0.20170076 0.28794831 1.7521536 4288448135
-0.19001925 0.28349647 1.748 4288909199
-0.25517693 0.31165472 1.7570001 4288579464
-0.2448431 0.30973822 1.7543001 4288447879
-0.23328581 0.30449551 1.7507 4288382343
-0.27160683 0.32295027 1.7570001 4288580239
-0.26120174 0.32039613 1.7514998 4288447883
-0.24754252 0.31636766 1.7490001 4288382342
-0.32808462 0.34040704 1.7570001 4288119426
-0.31852084 0.33694506 1.7522352 4288185476
-0.30459249 0.33823532 1.75475 4288383371
-0.29013655 0.33609793 1.7525001 4288580750
-0.27713516 0.33201653 1.7513748 4288580753
-0.26663992 0.32946888 1.748 4288513671
-0.34575894 0.35499024 1.7555 4287922818
-0.33399162 0.35209367 1.7522631 4287922303
-0.3223176 0.34785783 1.7479998 4287988097
-0.30736709 0.34701464 1.7492856 4288448905
-0.29422337 0.34479299 1.748 4288514958
-0.3757031 0.370574 1.7540001 4287396726
-0.36535448 0.36589164 1.7506469 4287988609
-0.3512238 0.36246672 1.7494997 4287857020
-0.33866334 0.36164954 1.748 4287725943
-0.40509978 0.38661614 1.7570001 4287725439
-0.39295986 0.38232291 1.7514613 4287594366
-0.38188526 0.37573987 1.751 4287528063
-0.43693271 0.40201917 1.7570001 4287135863
-0.42271101 0.4006491 1.7555 4287530118
-0.40883231 0.39526841 1.7509999 4287529342
-0.39651197 0.38961607 1.748 4287660161
-0.45239985 0.4121097 1.75625 4287135353
-0.43915582 0.40898812 1.7511762 4287200376
-0.42705229 0.40596581 1.749125 4287595654
-0.49317104 0.43017638 1.7525001 4287529599
-0.4846212 0.42695451 1.7539998 4287266944
-0.46985424 0.42122623 1.7514998 4287135356
-0.4567908 0.42042252 1.7507691 4287200632
-0.44593227 0.41834885 1.748 4287068792
-0.51037669 0.44277063 1.7524999 4286278241
-0.49991068 0.43611822 1.751 4286936178
-0.53987634 0.45978054 1.7570001 4286277982
-0.52848691 0.45454252 1.7529998 4286608487
-0.51633304 0.45155227 1.7500001 4286411630
-0.56837195 0.47595373 1.7570001 4285952096
-0.55795085 0.47216752 1.7525001 4286345573
-0.54413426 0.46561956 1.7529091 4286081886
-0.5317474 0.46432123 1.748 4286477159
-0.59609741 0.48827615 1.7570001 4286214509
-0.58775055 0.48443732 1.7550714 4286214253
-0.57550532 0.48191956 1.7517059 4286017384
-0.56392813 0.47964537 1.748 4286212964
-0.62690347 0.50367922 1.7570001 4286214761
-0.61810112 0.50078869 1.7535383 4286148969
-0.6015628 0.49473301 1.752 4286083177
-0.58875322 0.49313059 1.7479999 4286083180
-0.65770954 0.51908225 1.7570001 4285953654
-0.64836329 0.51515049 1.7532501 4286019441
-0.63319147 0.51115966 1.7536248 4285952874
-0.6206274 0.50722879 1.748 4286018152
-0.685435 0.53448528 1.7570001 4286151024
-0.67619318 0.53448528 1.7570001 4286019183
-0.66375685 0.53061771 1.7538235 4285887854
-0.65434051 0.5240854 1.748 4286150770
-0.70530003 0.54682678 1.7563077 4285427300
-0.69260401 0.54365855 1.7535001 4285756263
-0.67873925 0.53930575 1.7509999 4285887856
-0.66966462 0.53787708 1.748 4285953650
-0.73612684 0.56224769 1.7552 4285164392
-0.72084659 0.55906463 1.7538697 4285361768
-0.70762402 0.55790597 1.7504997 4285361508
-0.69724804 0.5532012 1.748 4285624428
-0.78144723 0.57864064 1.7570001 4284440148
-0.76844585 0.57840186 1.7553124 4284769369
-0.75355166 0.57357723 1.7515999 4285098849
-0.74359345 0.56844866 1.7525001 4285296229
-0.82459646 0.59065127 1.7556154 4284638047
-0.81217974 0.59079796 1.7549999 4284440663
-0.79678702 0.58956051 1.7541876 4284308565
-0.78419858 0.58709586 1.7509999 4284440405
-0.7698952 0.5854848 1.7529091 4284769116
-0.75854462 0.58384949 1.748 4285033574
-0.85794896 0.60841984 1.7570001 4284310617
-0.84013772 0.60672212 1.7537271 4284506970
-0.82686377 0.60043597 1.7506469 4284572254
-0.81320071 0.59713036 1.748 4284374869
-0.79907244 0.59610695 1.7495002 4284177235
-0.78919286 0.59610879 1.748 4284374356
-0.86796093 0.62151241 1.7570001 4284309332
-0.85723537 0.61814505 1.7547501 4284309591
-0.84431434 0.61562592 1.7496364 4284375638
-0.91031927 0.6376856 1.7570001 4284243538
-0.90053654 0.63470817 1.7547499 4284243539
-0.88633782 0.63448906 1.7516818 4284112213
-0.87283814 0.63237089 1.751857 4284178262
-0.85987836 0.6276536 1.7492857 4284309591
-0.9257223 0.65462893 1.7570001 4283717975
-0.91543818 0.64914769 1.7552857 4283848783
-0.90096885 0.64875174 1.7479997 4284046419
-0.8885808 0.64536488 1.7479998 4283981138
-0.87807286 0.6420812 1.748 4284112981
-0.94112533 0.66233045 1.7570001 4283652430
-0.92992741 0.66275728 1.7523044 4283717712
-0.91707855 0.6594823 1.7490001 4283717196
-0.90171582 0.65871876 1.748 4283980624
-0.89033216 0.65740532 1.748 4284046163
-0.95929074 0.68498874 1.748 4283520592
-0.9438138 0.6816045 1.7505715 4283717454
-0.93305045 0.67541116 1.7492858 4283520588
-0.98425382 0.69775742 1.7570001 4283190348
-0.9742806 0.69474137 1.7520001 4283454286
-0.96083069 0.68798542 1.7517499 4283585873
-0.94964582 0.68709856 1.7534001 4283651662
-0.97726178 0.70588523 1.7479999 4283256913
-0.97716886 0.71870184 1.748 4283125836
0.91962683 -0.31428325 1.766 4286939265
0.93459272 -0.31634751 1.7659999 4286742649
0.94461912 -0.32047603 1.7659999 4286807932
0.9552353 -0.3251206 1.766 4286807931
0.89206904 -0.30127841 1.766 4286148968
0.90053242 -0.30809048 1.7660002 4286478443
0.91601437 -0.31118685 1.7660002 4287005309
0.92659372 -0.31041276 1.766 4286873472
0.86234367 -0.28331938 1.766 4286146917
0.87163281 -0.28779194 1.7659999 4286146659
0.88463765 -0.29322782 1.766 4286148201
0.83137983 -0.27093384 1.766 4286015588
0.84066898 -0.27279168 1.766 4285884773
0.85615093 -0.2779007 1.7659999 4285950817
0.86544007 -0.28022298 1.766 4286146917
0.80351233 -0.25545189 1.766 4286278506
0.81191677 -0.25943297 1.7659999 4286212714
0.8267352 -0.26474106 1.766 4286015586
0.76738787 -0.23996997 1.7660002 4286345331
0.78183758 -0.2418278 1.766 4286212714
0.79731953 -0.24740128 1.766 4286081125
0.72919905 -0.22448803 1.766 4286936940
0.73917627 -0.2258642 1.7659999 4286674291
0.75280905 -0.23106785 1.7659999 4286477681
0.76325935 -0.2353254 1.7659999 4286410862
0.70924449 -0.21072632 1.7659999 4286805108
0.72171611 -0.21648902 1.7660002 4286607728
0.73229545 -0.22139165 1.766 4286805363
0.68120503 -0.19662055 1.766 4287136383
0.69204241 -0.20027994 1.766 4286542452
0.70287979 -0.20590971 1.766 4286805106
0.65488577 -0.18268681 1.766 4287200639
0.66461724 -0.18534087 1.7660002 4287397761
0.67768645 -0.18986481 1.766 4287201404
0.68739784 -0.19352417 1.766 4286607726
0.63708156 -0.16643079 1.766 4287266429
0.64753193 -0.1722365 1.7659999 4287200381
0.58986169 -0.15194412 1.7659999 4287001205
0.60180479 -0.15592518 1.7660002 4287002227
0.61772913 -0.15636753 1.7660002 4287001718
0.63135326 -0.16132174 1.766 4287199861
0.56199419 -0.13469282 1.7660002 4287198067
0.57482201 -0.14088559 1.7660002 4286870132
0.586146 -0.14583981 1.766 4286935671
0.53257847 -0.11921088 1.766 4287066732
0.54434478 -0.12509403 1.766 4287132274
0.55818325 -0.1289764 1.7660002 4287132272
0.56818694 -0.13159643 1.766 4287066995
0.5062592 -0.10682534 1.766 4287264117
0.51400018 -0.10992172 1.7659999 4287263860
0.52708948 -0.1132996 1.766 4287264372
0.48502687 -0.092670433 1.7659999 4287263859
0.500781 -0.098012537 1.7660002 4287329910
0.5093556 -0.10372895 1.766 4287133815
0.45671704 -0.075861476 1.766 4287329397
0.47219902 -0.079989985 1.7659999 4287592063
0.47963029 -0.085769907 1.766 4287526265
0.42884955 -0.063475922 1.766 4287855486
0.43902341 -0.06834168 1.7659999 4287460985
0.45465279 -0.071216896 1.7659999 4287526008
0.4652321 -0.071990997 1.766 4287394679
0.39877036 -0.048878673 1.7659999 4287789954
0.40850186 -0.054186765 1.7659999 4287987842
0.4211086 -0.057283152 1.766 4288052612
0.36847001 -0.032512061 1.766 4286152119
0.37930736 -0.033131339 1.766 4285628122
0.39107364 -0.039324112 1.766 4287266214
0.35453627 -0.017030127 1.766 4282680575
0.36326244 -0.024067366 1.766 4283532020
0.37466279 -0.029415673 1.766 4282680033
0.34060252 -0.010837353 1.766 4287211248
0.35020134 -0.012075908 1.766 4281891815
0.12850004 0.10218076 1.7659999 4289171091
0.14044325 0.098642029 1.7660002 4286811328
0.15172294 0.09908437 1.766 4282814207
0.10063257 0.1161145 1.7660002 4289169808
0.11224401 0.11301811 1.7659999 4289367956
0.12402748 0.10923364 1.7659999 4289236882
0.071216896 0.13159643 1.766 4290027939
0.083215378 0.13043529 1.7659999 4289764515
0.096762083 0.12385547 1.7659999 4289762973
0.054960862 0.14630426 1.766 4290093226
0.065798223 0.13985348 1.7660002 4289895587
0.078957863 0.13469282 1.7660002 4289895843
0.026938563 0.16132174 1.766 4289895584
0.037578877 0.15636753 1.766 4289829792
0.048510056 0.15120687 1.7659999 4289895582
-0.018578321 0.17804223 1.766 4289434512
-0.0089021111 0.17610699 1.7659999 4289434772
0.0082570305 0.17184944 1.7660002 4289698462
0.018578321 0.16565669 1.766 4290027168
-0.045929734 0.19249205 1.7660002 4289499543
-0.037543688 0.19081481 1.7659999 4289434005
-0.024461452 0.18299644 1.766 4289368211
-0.006708838 0.18113862 1.7660002 4289500308
-0.061927736 0.20590971 1.766 4289237646
-0.051606447 0.20100711 1.7660002 4289368208
-0.040253028 0.19662055 1.766 4289499532
-0.09443979 0.21906935 1.7659999 4289500313
-0.082054242 0.21382271 1.7659999 4289302934
-0.067260407 0.21038227 1.7659999 4289237134
-0.12075908 0.23687358 1.766 4289237660
-0.11146992 0.23222898 1.7660002 4289434262
-0.099747881 0.22669972 1.7659999 4289434517
-0.15017475 0.25235552 1.766 4289039763
-0.14000091 0.24925919 1.7660002 4288842889
-0.1268111 0.2439108 1.766 4289369236
-0.18688905 0.26518339 1.7659999 4288973966
-0.17184946 0.25792903 1.766 4288973969
-0.15636753 0.25738713 1.7659999 4289105300
-0.14553016 0.25545189 1.766 4288974222
-0.2090061 0.28022298 1.766 4288513671
-0.20246929 0.27609444 1.7659999 4288644743
-0.19352417 0.27093384 1.766 4288710282
-0.22913262 0.29570493 1.766 4288775822
-0.21132839 0.28796396 1.766 4288513670
-0.20281333 0.28486758 1.766 4288579464
-0.26009646 0.31041276 1.766 4288513675
-0.24616274 0.30530375 1.766 4288185220
-0.2353254 0.3003495 1.766 4288578694
-0.28564167 0.32589471 1.766 4288646540
-0.27661052 0.3220242 1.7659999 4288712081
-0.26551515 0.31505734 1.766 4288448139
-0.33224228 0.33967361 1.766 4288184960
-0.32047603 0.33389366 1.7659999 4288184962
-0.30615523 0.33247453 1.7659999 4288580237
-0.29260853 0.32976517 1.7660002 4288580749
-0.34989172 0.35298809 1.766 4287987841
-0.3395704 0.34834349 1.7659999 4287987836
-0.37724313 0.36743787 1.7659999 4287659386
-0.36515245 0.359402 1.7659999 4288185475
-0.35453627 0.35763267 1.766 4288119426
-0.4051106 0.38446799 1.7660002 4287659896
-0.39567399 0.37798029 1.7659999 4287659907
-0.38395196 0.37311459 1.766 4287396989
-0.43968692 0.40098208 1.766 4287200622
-0.42575318 0.39974353 1.766 4287726726
-0.41336763 0.39220896 1.7659999 4287594625
-0.47942388 0.41543186 1.7660002 4287201927
-0.47034112 0.41367728 1.766 4287332480
-0.45327663 0.40717486 1.7659999 4287201405
-0.4412351 0.40407845 1.766 4286807664
-0.5093556 0.43194595 1.766 4286082149
-0.49937835 0.42850548 1.7659999 4287068539
-0.4873369 0.42300081 1.7659999 4287398531
-0.46910259 0.4195604 1.766 4286939002
-0.52660686 0.44344682 1.7659999 4286212197
-0.51554841 0.43946576 1.7659999 4285883735
-0.50471103 0.43504232 1.766 4286803305
-0.55270499 0.45981342 1.766 4286083432
-0.54285288 0.45502809 1.766 4286212959
-0.52909505 0.44858903 1.7659999 4286541671
-0.58676529 0.47529539 1.7660002 4286345060
-0.57265949 0.47357512 1.7659999 4286280294
-0.55855376 0.4670383 1.7659999 4286279780
-0.54960865 0.46290982 1.766 4286147171
-0.62701827 0.49077728 1.766 4285884002
-0.60089254 0.48555207 1.7660003 4286214507
-0.58831346 0.47839174 1.766 4286344806
-0.57747608 0.47839174 1.7660002 4286017893
-0.64250022 0.50316286 1.766 4285886830
-0.63398516 0.49960199 1.7660002 4285885803
-0.6181162 0.49697006 1.7659999 4286083436
-0.60534358 0.49387369 1.7660002 4286084192
-0.66019392 0.5146637 1.7659999 4286019439
-0.64985418 0.51129085 1.7659999 4285953651
-0.63940382 0.5093556 1.766 4285821802
-0.70380867 0.53288811 1.766 4285559662
-0.69132793 0.53150666 1.7660002 4285756269
-0.67830223 0.52812743 1.7660003 4285953391
-0.66765833 0.52445048 1.7659999 4285953393
-0.71784562 0.54857653 1.7660002 4285690468
-0.70752436 0.54088241 1.766 4285559400
-0.69410664 0.53825521 1.7659999 4285756270
-0.76016295 0.56509054 1.766 4285032552
-0.7514931 0.56447124 1.766 4285230187
-0.73745614 0.55941385 1.7659999 4285164642
-0.72455448 0.55347908 1.766 4285361771
-0.79112679 0.57902431 1.766 4284571473
-0.78222466 0.57592797 1.7659999 4284571733
-0.76635569 0.57221222 1.766 4284900958
-0.75474423 0.56896108 1.766 4285164649
-0.83550835 0.58986163 1.7660002 4284703586
-0.82828349 0.58676529 1.7660002 4284573027
-0.81228542 0.5877974 1.7659999 4284440406
-0.79917741 0.58490747 1.766 4284308566
-0.86544007 0.60843998 1.766 4284375126
-0.85382861 0.6076659 1.766 4284310360
-0.84221721 0.60173112 1.7659999 4284637789
-0.88092202 0.62392193 1.766 4284112981
-0.87163281 0.61734205 1.7659999 4284178518
-0.85821515 0.6125685 1.7660002 4284310364
-0.9242714 0.63940382 1.766 4283980368
-0.91653043 0.63630748 1.7659999 4283980882
-0.9015646 0.62959862 1.7659999 4284244053
-0.8875019 0.62934053 1.7659999 4284112470
-0.87782562 0.62701827 1.766 4284375126
-0.94130158 0.6533376 1.766 4283717457
-0.93046421 0.65010047 1.766 4283783504
-0.92014289 0.64353234 1.7660002 4284177489
-0.9459461 0.66293633 1.766 4283651664
-0.93510878 0.65798217 1.766 4283652434
-0.9490425 0.67567581 1.7659999 4283651661
-0.97226536 0.68739784 1.766 4283323470
-0.95957023 0.68646896 1.766 4283520590
-0.9521389 0.68584967 1.766 4283782989
0.96316522 -0.34348458 1.7850001 4286742141
0.94827545 -0.33141524 1.7832 4286742395
0.95893705 -0.33446214 1.7808462 4286807930
0.88726997 -0.31453484 1.7850001 4286017637
0.90276426 -0.31472257 1.781625 4286345320
0.91673905 -0.31807461 1.7809091 4286939256
0.93159515 -0.32250783 1.7810001 4286873725
0.94403678 -0.32488564 1.7760001 4286808188
0.86223233 -0.30045122 1.7850001 4286146917
0.87190604 -0.301447 1.785 4285951335
0.88702238 -0.30577138 1.7806959 4286083177
0.89629 -0.30879709 1.7760001 4286148961
0.83171773 -0.28402025 1.7850001 4286015589
0.84231609 -0.28608304 1.785 4285884259
0.85743445 -0.28888685 1.7812109 4285818976
0.87003249 -0.29335469 1.7785717 4285884772
0.88341904 -0.29675657 1.7760003 4286344299
0.8124851 -0.27356786 1.7844374 4286081125
0.82765293 -0.27485159 1.7813183 4286146917
0.84184986 -0.27854115 1.7768184 4285949796
0.85399258 -0.28103128 1.7760001 4285949795
0.75269282 -0.25507054 1.7850001 4286410862
0.77209699 -0.25632244 1.7850001 4286146407
0.78398991 -0.25585297 1.7850001 4286081380
0.79813981 -0.25975138 1.783125 4286015333
0.80902034 -0.26264715 1.7760004 4286212457
0.82363176 -0.26624015 1.7760001 4286081635
0.74173892 -0.23942205 1.7850001 4286805113
0.75285888 -0.24587314 1.7823533 4286411372
0.76674914 -0.24652202 1.7785002 4286279278
0.78179199 -0.24828354 1.7794617 4286212969
0.79554975 -0.25036845 1.7793751 4285949540
0.71513647 -0.22377355 1.7850001 4286804854
0.72347504 -0.22612926 1.7824286 4286542445
0.73684841 -0.23237994 1.7790004 4286739828
0.75031316 -0.23566712 1.7760003 4286608498
0.76135343 -0.23821488 1.7760001 4286412145
0.6961782 -0.21251655 1.7810001 4286805877
0.70776778 -0.21610831 1.7773849 4286805109
0.72242945 -0.2218668 1.7760001 4286607470
0.66496754 -0.19640808 1.781625 4287661706
0.67756754 -0.20011079 1.779177 4287267206
0.69105041 -0.20572861 1.7778002 4286872184
0.65148216 -0.18306945 1.780154 4287200636
0.66038972 -0.19078983 1.7790002 4287595394
0.6047287 -0.16752423 1.781143 4287067511
0.61766642 -0.16998217 1.781143 4287067509
0.63392627 -0.17094564 1.7802004 4287134330
0.64566761 -0.17519569 1.7790002 4287200382
0.5780161 -0.15257858 1.7820001 4286869354
0.58775413 -0.15619975 1.7800912 4286869616
0.60119355 -0.16226237 1.7772858 4287396216
0.61915106 -0.16244283 1.7760001 4287067509
0.62901187 -0.1634808 1.7760001 4286870899
0.54833394 -0.13591315 1.7820001 4287065967
0.55979466 -0.14044251 1.7799377 4287066226
0.57108366 -0.14524285 1.7782501 4286869875
0.51796538 -0.12049345 1.7850002 4287460212
0.52914286 -0.12175256 1.7805001 4287263860
0.54229563 -0.12911028 1.7805002 4287132014
0.50229686 -0.10800993 1.7812501 4287329910
0.51275206 -0.11488979 1.7790002 4287394677
0.52313852 -0.116772 1.7760001 4287526775
0.46163076 -0.093890995 1.7850001 4287394411
0.47310629 -0.093369387 1.7850002 4287723637
0.48312834 -0.096916512 1.7808462 4287395190
0.49594435 -0.10033538 1.7790002 4287263604
0.43033373 -0.07667765 1.7850001 4287789428
0.44089648 -0.077851295 1.785 4287723895
0.45577157 -0.081782922 1.7825004 4287394675
0.46921641 -0.083550863 1.7795004 4287459957
0.4006016 -0.061029151 1.7850001 4287788920
0.41120467 -0.063506395 1.7812501 4288184193
0.42486346 -0.067131974 1.780737 4287987072
0.43902212 -0.072838232 1.7785715 4287658362
0.45151839 -0.073177122 1.7760001 4287592058
0.37086946 -0.045380648 1.7850001 4287328118
0.38159984 -0.046274848 1.785 4287525752
0.39495891 -0.050958551 1.7816252 4287658110
0.40636656 -0.05760752 1.7760001 4288382085
0.35522094 -0.032861851 1.7850001 4287198074
0.36516744 -0.037044633 1.7823532 4287526537
0.37987831 -0.039264772 1.7811431 4287395213
0.38872099 -0.040999945 1.7760001 4287855759
0.33644274 -0.01900175 1.785 4284318959
0.35028312 -0.022961216 1.782577 4285499091
0.36028057 -0.025845537 1.7760003 4284645096
0.29575664 -0.0046945498 1.7850001 4282877951
0.30201605 -0.0059464294 1.7850001 4283009021
0.32705364 -0.0062593995 1.7850001 4283007998
0.33475152 -0.0099655632 1.7833124 4283403260
0.34720209 -0.014012639 1.7760001 4283005136
0.12988256 0.089196451 1.7850002 4289301651
0.14269796 0.087555625 1.7800001 4287466678
0.1533553 0.089196451 1.7850001 4283076607
0.11472454 0.10067639 1.7805001 4289564305
0.12574664 0.09584602 1.7786475 4289236625
0.14034881 0.092750333 1.7760001 4287794868
0.15322863 0.094014175 1.7775002 4282879743
0.084948562 0.1162219 1.7835001 4289170322
0.096524216 0.11349882 1.7790002 4289300876
0.1099081 0.10775232 1.777385 4289301393
0.1209239 0.10535429 1.7760001 4289236626
0.068623781 0.12799582 1.782231 4289631128
0.082086794 0.12391306 1.7786474 4289499543
0.09310621 0.12237706 1.7760003 4289630871
0.026540458 0.14655337 1.781143 4289896105
0.037813738 0.1446496 1.7801541 4289961377
0.051132463 0.14141178 1.7788426 4289896100
0.063056879 0.136234 1.7760001 4289961383
0.011617001 0.16037506 1.7800001 4289961635
0.022725001 0.15647431 1.7783689 4289896356
0.034564514 0.15289347 1.7760003 4289896096
-0.021171501 0.17374113 1.7825454 4289565843
-0.0073911762 0.17093614 1.7802002 4289631642
0.0043292721 0.16756462 1.7790002 4289895330
-0.061029151 0.19247656 1.7850001 4289434773
-0.05025579 0.18876649 1.7820002 4289500306
-0.03741635 0.18395074 1.7782502 4289368469
-0.026468322 0.1790504 1.7760001 4289630871
-0.092326149 0.20812505 1.7850001 4289501597
-0.082937047 0.20812507 1.7850001 4289566618
-0.066174045 0.20199685 1.7797061 4289434004
-0.055531576 0.19669594 1.7760001 4289434003
-0.10782135 0.2207686 1.7824286 4289566362
-0.096921928 0.21516614 1.7800001 4289500570
-0.082588576 0.21088612 1.7775002 4289500307
-0.12577593 0.23315388 1.7810001 4289368982
-0.11264448 0.22590068 1.7796001 4289566103
-0.18152261 0.25194085 1.7850001 4289105555
-0.16968068 0.24943477 1.783875 4288974480
-0.1569737 0.24914369 1.7792729 4289105810
-0.14248464 0.24280828 1.7808001 4289040014
-0.13078463 0.24132881 1.7760001 4289106320
-0.199789 0.2651287 1.7832 4288710540
-0.18619756 0.25938123 1.7810626 4288908430
-0.17259812 0.25525114 1.7790002 4288908433
-0.1591213 0.25440726 1.7760003 4289236627
-0.21421067 0.27691555 1.7815387 4288644487
-0.20336963 0.27107862 1.7785715 4288775817
-0.2566354 0.29575664 1.7850001 4288513670
-0.24431224 0.29164892 1.785 4288644744
-0.23064552 0.28921983 1.7810402 4288645000
-0.21841931 0.28879592 1.7775002 4288578951
-0.27423999 0.30944911 1.785 4288778128
-0.26111585 0.30436677 1.7814003 4288514189
-0.24737358 0.30077785 1.7814001 4288447621
-0.23821488 0.30049327 1.7760001 4288513156
-0.33018336 0.32705364 1.7850001 4288250753
-0.32314152 0.32627121 1.7850001 4288250753
-0.30201605 0.32526523 1.785 4288645771
-0.28935754 0.3202481 1.7820001 4288646285
-0.27681491 0.31677988 1.7784549 4288777620
-0.34672603 0.33823115 1.785 4288053635
-0.33470148 0.33491826 1.7805002 4288119421
-0.31939211 0.33031055 1.7793751 4288316291
-0.30641237 0.3294743 1.7778002 4288513930
-0.29582238 0.32851857 1.7760001 4288711563
-0.37634641 0.35443854 1.7850001 4287923064
-0.36442202 0.35135496 1.7813185 4288119683
-0.35073388 0.3470878 1.7790002 4288053635
-0.34097424 0.34408817 1.7760001 4287988095
-0.40842584 0.37086949 1.7850002 4287988867
-0.39448422 0.36839613 1.7814003 4287857022
-0.38144764 0.36231768 1.7805003 4287791228
-0.37211344 0.35965776 1.7760001 4287988097
-0.43744671 0.38367274 1.785 4287462774
-0.42381173 0.38094348 1.7845501 4287857282
-0.40988287 0.37866476 1.7800002 4287725951
-0.39780328 0.37600583 1.7760001 4287724932
-0.45316434 0.39713392 1.7835001 4287529343
-0.44035736 0.3950654 1.7812501 4287462776
-0.4261691 0.39376724 1.7785002 4287726723
-0.41467035 0.38872099 1.7760001 4287594626
-0.49749631 0.41311592 1.7823 4287266428
-0.48397598 0.41038862 1.779177 4287464066
-0.46933895 0.40966791 1.7793753 4287332479
-0.45603198 0.40428415 1.7778002 4287267453
-0.52578962 0.43033373 1.7850001 4286873212
-0.51385069 0.42549318 1.7805002 4287135095
-0.50136524 0.4218176 1.7770592 4287134843
-0.48888543 0.41882223 1.7760001 4287136384
-0.5413419 0.44295752 1.78125 4286280813
-0.5282256 0.4381347 1.7793752 4286346604
-0.51691067 0.43594879 1.7760001 4286411110
-0.57117027 0.46163073 1.7850002 4286476654
-0.55776554 0.45473704 1.7804999 4286344809
-0.54733342 0.45161945 1.7772858 4286081124
-0.597287 0.4733474 1.7820002 4286214759
-0.58835387 0.47195122 1.7794617 4286345575
-0.57504487 0.46763846 1.7770592 4286411114
-0.56310052 0.46449307 1.7760001 4286214506
-0.64546841 0.48917672 1.7827501 4285425759
-0.63455123 0.48764217 1.7802004 4285622624
-0.61707824 0.48727095 1.7796003 4286148970
-0.60425329 0.47948265 1.7790002 4286214507
-0.66001219 0.50555962 1.7832 4285295210
-0.64789808 0.49928111 1.7792729 4285491813
-0.63265568 0.49397051 1.7775002 4285885027
-0.62070805 0.49459425 1.7760001 4286214765
-0.68801242 0.52005178 1.7850002 4285887598
-0.67800349 0.51708961 1.7820001 4285953649
-0.66259432 0.51144999 1.7805003 4285887855
-0.65080929 0.51068282 1.7760001 4286019186
-0.72139579 0.53361386 1.7850002 4285624683
-0.70787299 0.53112119 1.7790002 4285756271
-0.69404799 0.52657801 1.7797502 4285756266
-0.67831558 0.52210063 1.7760001 4285953390
-0.73220712 0.54856604 1.7827501 4285361767
-0.72325218 0.54223448 1.7799379 4285558889
-0.71464461 0.53870821 1.7760001 4285559661
-0.79024923 0.56491083 1.7850001 4284505940
-0.76406103 0.56504369 1.7805002 4285032293
-0.75222594 0.56098521 1.7817857 4285230182
-0.73887986 0.55539006 1.7812501 4285230182
-0.72710031 0.55272079 1.7760001 4285558631
-0.82467592 0.58055937 1.7850001 4284966491
-0.80799353 0.57744831 1.7840999 4284506455
-0.79758322 0.57471389 1.7828825 4284505942
-0.78337246 0.57217127 1.7784004 4284637786
-0.7718088 0.56910872 1.7785715 4284835678
-0.85284328 0.59307814 1.7850002 4284572249
-0.84047049 0.58738816 1.7820001 4284638039
-0.82731956 0.58623421 1.7826002 4284769375
-0.81289029 0.58586735 1.7797502 4284505941
-0.80027747 0.58385998 1.7760001 4284440397
-0.85586208 0.60185742 1.7826002 4284440921
-0.84698623 0.59865111 1.7760001 4284506202
-0.90917784 0.62437516 1.7850001 4284178774
-0.9013536 0.62437516 1.7850001 4284244317
-0.88603312 0.61840737 1.7807146 4284309589
-0.87308741 0.61264771 1.781625 4284309590
-0.86099887 0.61188525 1.7760001 4284310365
-0.92895037 0.6362955 1.7825454 4283849553
-0.91631663 0.63144648 1.7800912 4284112719
-0.90156329 0.62861133 1.780091 4284178775
-0.89110011 0.62849289 1.7760001 4284047189
-0.95659763 0.65352172 1.7820002 4283585869
-0.9451263 0.65058345 1.7808002 4283717456
-0.93457901 0.64539212 1.7782501 4283849040
-0.97072864 0.6661045 1.785 4283585868
-0.96034575 0.6618129 1.7805002 4283651405
-0.95130253 0.65859407 1.7760001 4283651928
-0.98648149 0.67945784 1.7850001 4283323216
-0.97436851 0.67672688 1.7809094 4283389260
-0.96230513 0.67810804 1.7760005 4283520589
-0.99993914 0.69948792 1.7850001 4283125834
-0.98950678 0.69301987 1.785 4283257673
-0.97372276 0.6878649 1.7760003 4283389004
-0.96220124 0.68661934 1.7760001 4283520592
-0.99993914 0.70261765 1.7850001 4282928460
-0.99440432 0.70358944 1.7835001 4283125836
0.96220225 -0.34631735 1.794 4286807932
0.97038054 -0.35072103 1.794 4286611321
0.93368334 -0.33184814 1.794 4286873982
0.94521672 -0.33538681 1.7939999 4286940027
0.9570123 -0.34049821 1.794 4286807931
0.88427305 -0.31612077 1.7939999 4286017385
0.90118009 -0.31989533 1.794 4286279265
0.91848016 -0.32398444 1.794 4286939513
0.86238575 -0.30144182 1.794 4285884518
0.87224162 -0.30731338 1.794 4286147941
0.88073438 -0.30982977 1.794 4286214760
0.828834 -0.28623867 1.794 4286081630
0.84141588 -0.29252964 1.7939999 4285818979
0.85489655 -0.29589981 1.7939999 4285950055
0.8015731 -0.26998702 1.794 4286146915
0.81184834 -0.27837497 1.794 4286081639
0.82254303 -0.28152046 1.794 4286147171
0.75491518 -0.25792938 1.794 4286345069
0.76812613 -0.25981668 1.794 4286212713
0.78165179 -0.26170397 1.794 4286081381
0.79423368 -0.26500666 1.794 4286081631
0.74233329 -0.24220195 1.794 4286674038
0.75124544 -0.24954142 1.794 4286345327
0.76592439 -0.25321114 1.794 4286147692
0.72293615 -0.22962004 1.794 4286608244
0.73446953 -0.23591101 1.794 4286739827
0.68256915 -0.20917442 1.794 4287266436
0.69357836 -0.21420717 1.794 4286937204
0.70930576 -0.22175634 1.794 4286936693
0.66094398 -0.19973798 1.7939999 4287332227
0.67470551 -0.20498045 1.794 4287463558
0.61965954 -0.18086509 1.794 4286805102
0.63486272 -0.18086509 1.794 4287265656
0.64811188 -0.18601227 1.7940001 4287332225
0.65583259 -0.19344702 1.794 4287266686
0.59292299 -0.16513769 1.794 4286935922
0.60370743 -0.17097931 1.7939999 4287067764
0.61808681 -0.1768209 1.7939999 4286870643
0.63381422 -0.17709053 1.794 4287200121
0.56356519 -0.1504588 1.794 4287066225
0.57319218 -0.15598722 1.7940001 4287000687
0.58726108 -0.16136312 1.794 4287000433
0.54521656 -0.13892536 1.794 4287000425
0.55622572 -0.14364357 1.794 4287000433
0.51498497 -0.12389696 1.794 4287329138
0.5304628 -0.12918936 1.7940003 4287263347
0.54102254 -0.13368289 1.794 4287065966
0.48676303 -0.10615994 1.794 4287526770
0.49807468 -0.11142257 1.7940001 4287460466
0.50956774 -0.1179555 1.794 4287328884
0.45640916 -0.092791662 1.794 4287459953
0.47003955 -0.097824432 1.7940003 4287657591
0.48204479 -0.10144173 1.794 4287658103
0.42830953 -0.078112759 1.794 4287987067
0.43997401 -0.082962036 1.7939999 4287789434
0.45074731 -0.085242502 1.794 4287460471
0.46710378 -0.086500697 1.794 4287524977
0.3985323 -0.063853242 1.794 4287525491
0.41009197 -0.068807378 1.7939999 4288183931
0.42228073 -0.073132411 1.794 4288184192
0.36554971 -0.046957519 1.7939999 4287526011
0.3793163 -0.051328514 1.7940001 4287723129
0.39251095 -0.055944614 1.7939999 4287592313
0.33971184 -0.02988206 1.794 4288053392
0.35217279 -0.035447143 1.7940001 4287592579
0.36120597 -0.041415486 1.794 4287658112
0.30511156 -0.01730014 1.794 4287989197
0.32319808 -0.01808651 1.794 4284186837
0.33413574 -0.023305148 1.7940001 4286742978
0.29305387 -0.0047182203 1.794 4283009278
0.3059853 -0.009261691 1.794 4283466998
0.31896666 -0.0090619773 1.794 4283008252
0.32870266 -0.01258192 1.794 4282877436
0.1311665 0.085242502 1.794 4289236372
0.14102235 0.083355218 1.794 4288778145
0.15176941 0.08414159 1.794 4284385495
0.11271304 0.098558366 1.794 4289301905
0.12267372 0.089646183 1.794 4289236878
0.072346039 0.1179555 1.794 4289170579
0.082568847 0.11481002 1.794 4289236114
0.096723519 0.10851906 1.7939999 4289038734
0.10537358 0.10537358 1.794 4289038733
0.042463981 0.13368289 1.794 4290159014
0.054102253 0.1311665 1.794 4289566368
0.065181337 0.12459596 1.794 4289301912
0.02201836 0.14469206 1.794 4289961896
0.036697268 0.13892537 1.794 4289961891
0.047182199 0.13682838 1.794 4289895587
-0.018872879 0.16199222 1.794 4289631643
-0.010559825 0.15974544 1.7939999 4289566111
0.0085626952 0.15640026 1.794 4289896358
0.01730014 0.15098304 1.794 4289962151
-0.034993466 0.1757537 1.7939999 4289499796
-0.023241602 0.16863267 1.794 4289566359
-0.0073394529 0.16566195 1.794 4289631645
-0.063958086 0.19030154 1.794 4289302680
-0.052686788 0.18479694 1.7939999 4289434263
-0.040891238 0.18086509 1.794 4289434262
-0.092791669 0.20602894 1.794 4289434259
-0.080838837 0.20539984 1.794 4289696916
-0.070773304 0.1989516 1.794 4289104016
-0.12424646 0.22175634 1.794 4289368983
-0.11166455 0.21721286 1.794 4289500823
-0.099711709 0.21169078 1.794 4289435032
-0.14941029 0.23748374 1.794 4289171603
-0.14123204 0.23496735 1.794 4289237135
-0.12913942 0.22769779 1.794 4289237391
-0.18597651 0.25045887 1.7939999 4288776586
-0.17142865 0.24534743 1.794 4289171602
-0.15570125 0.24377471 1.794 4289171350
-0.21074715 0.26579306 1.794 4288645257
-0.20131072 0.26028848 1.7939999 4288710537
-0.19187428 0.25635663 1.794 4288709767
-0.24534744 0.28152046 1.794 4288711043
-0.23049378 0.28012243 1.794 4288645000
-0.21861087 0.27298272 1.7939999 4288710025
-0.27163464 0.29500109 1.7939999 4288974484
-0.26085019 0.29163095 1.7940003 4288645768
-0.24936666 0.28711241 1.794 4288710534
-0.30039334 0.30982977 1.794 4288645770
-0.2902579 0.30843174 1.794 4288777615
-0.27654007 0.30380091 1.7940001 4288909203
-0.26579306 0.30039334 1.794 4288646543
-0.33027542 0.32555717 1.794 4288316289
-0.31926623 0.32477081 1.794 4288185476
-0.30468261 0.32012412 1.7940001 4288646027
-0.29292282 0.31454802 1.7939999 4288580747
-0.36393204 0.34065548 1.794 4288251012
-0.34993464 0.33538681 1.7939999 4288119429
-0.33892548 0.33106178 1.794 4288250243
-0.31612074 0.32870266 1.794 4288316294
-0.3900395 0.35701197 1.794 4287857018
-0.37868083 0.35107052 1.794 4287923069
-0.36723477 0.34521645 1.794 4288054150
-0.40812603 0.36684158 1.7939999 4288054660
-0.39700451 0.36150554 1.7939999 4287922815
-0.44980362 0.38374856 1.794 4287661184
-0.43997401 0.37942353 1.7939999 4287660416
-0.4256883 0.37483636 1.794 4287857277
-0.41677609 0.37273937 1.794 4288185219
-0.48283118 0.40104869 1.794 4287858557
-0.46395829 0.40104869 1.794 4287529856
-0.4567686 0.39340967 1.7939999 4287725952
-0.51376176 0.41572762 1.794 4287200632
-0.49751008 0.4099609 1.794 4287463291
-0.48534757 0.40482324 1.794 4287661441
-0.47213656 0.4054524 1.794 4287464065
-0.52804744 0.42660573 1.7939999 4287003514
-0.52057695 0.42149431 1.794 4287398008
-0.55360448 0.44508541 1.794 4286478434
-0.54448259 0.43942356 1.794 4286676339
-0.53525585 0.43564901 1.794 4286676086
-0.57247734 0.45766735 1.7939999 4286542703
-0.5598954 0.44901726 1.794 4286476641
-0.63695967 0.47654021 1.794 4285951592
-0.60131097 0.47234622 1.794 4286280300
-0.58872896 0.46657956 1.794 4286345836
-0.58034104 0.46395829 1.794 4286542198
-0.64744467 0.48650089 1.794 4285622882
-0.63324231 0.48426092 1.7940001 4285950820
-0.61913532 0.48230693 1.794 4286148970
-0.66055083 0.50039345 1.7940001 4285359971
-0.63381422 0.49226761 1.794 4286147171
-0.69287938 0.51708198 1.794 4285887086
-0.67785084 0.51114047 1.7940001 4285295466
-0.73237258 0.53525585 1.794 4285492837
-0.72188765 0.53158611 1.794 4285624426
-0.7079078 0.5265184 1.794 4285821809
-0.69829655 0.52372241 1.794 4285821548
-0.7381869 0.54488289 1.7940001 4285361766
-0.80681562 0.56461364 1.794 4284704089
-0.79842764 0.56356514 1.794 4284440145
-0.77913541 0.56178272 1.794 4284834655
-0.76774544 0.55799162 1.7940001 4285163618
-0.75503623 0.55566114 1.7940001 4285295716
-0.74233329 0.55203176 1.794 4285296227
-0.83827043 0.58034104 1.794 4284769371
-0.82694662 0.57782465 1.794 4284835676
-0.81334865 0.57308227 1.7940001 4284704094
-0.79790348 0.5688076 1.794 4284506198
-0.78299987 0.56865788 1.7939999 4284703579
-0.76906985 0.56775916 1.794 4285098084
-0.85596377 0.59095705 1.7939999 4284506713
-0.84141588 0.58348656 1.794 4284834905
-0.82673693 0.58348656 1.794 4284835163
-0.81939751 0.58348656 1.794 4284638042
-0.89488906 0.60865039 1.794 4284244823
-0.88859814 0.60865039 1.794 4284572248
-0.86920094 0.60340792 1.7940001 4284375383
-0.86343426 0.59606844 1.794 4284310617
-0.91297555 0.62359136 1.794 4284047191
-0.90118003 0.6191352 1.7940001 4284441176
-0.88545263 0.61179584 1.794 4284375128
-0.87287068 0.61258227 1.794 4284374873
-0.94207126 0.63905668 1.794 4283784014
-0.93053776 0.63119298 1.794 4283980368
-0.92005283 0.62909597 1.794 4284178255
-0.95937145 0.65190071 1.794 4283651403
-0.9467895 0.64587194 1.794 4283848528
-0.97627836 0.66330314 1.7939999 4283585871
-0.96723509 0.65583259 1.794 4283520844
-0.99868989 0.68256915 1.794 4283389263
-0.99239886 0.67560416 1.7939999 4283454542
-0.98296249 0.67155999 1.794 4283716940
-1.0015732 0.69462681 1.7940001 4283257421
0.96476382 -0.35761425 1.8130001 4286807929
0.97588956 -0.35840893 1.8130001 4286611319
0.92343944 -0.34489909 1.8130001 4287005310
0.93218112 -0.3468858 1.813 4287005053
0.94482404 -0.34721091 1.8129998 4286939770
0.95934933 -0.34894422 1.8076 4286873723
0.97262663 -0.35373032 1.8040003 4286676856
0.87893635 -0.32900512 1.8130001 4286147171
0.88705993 -0.33112431 1.813 4286082661
0.90193707 -0.3334789 1.8121818 4286279785
0.91771507 -0.33559629 1.8106316 4286807414
0.93123722 -0.33649266 1.8062503 4286939518
0.94533706 -0.33965731 1.8062501 4286808698
0.86304241 -0.31311116 1.8130001 4285949543
0.87261814 -0.31919453 1.8090872 4286081638
0.88617086 -0.32262731 1.8040003 4286147942
0.9012329 -0.32556441 1.804 4286082404
0.9135837 -0.32631752 1.804 4286477164
0.84270322 -0.30090225 1.8103001 4285884515
0.857728 -0.30519465 1.8095384 4285884772
0.86957538 -0.30977225 1.805125 4286015589
0.78516197 -0.284502 1.8130001 4286080865
0.81536049 -0.284502 1.8130001 4286147171
0.82687128 -0.2893607 1.8076 4286147165
0.83749074 -0.29546809 1.8078572 4285818978
0.76862496 -0.26997256 1.8115 4286146917
0.78099728 -0.27597341 1.8091429 4285949792
0.79628402 -0.27345368 1.8100001 4286015329
0.80926055 -0.27767879 1.807375 4286081379
0.72953308 -0.25589287 1.8130001 4286674036
0.73971611 -0.25787088 1.8119998 4286673521
0.75083494 -0.26086068 1.8098236 4286345072
0.76663536 -0.26490238 1.804 4286212971
0.78811747 -0.2662203 1.8040003 4286015588
0.79233485 -0.26727462 1.8040001 4286016092
0.72611171 -0.24436976 1.8124 4286542448
0.73772591 -0.24671628 1.8072402 4286674290
0.74910694 -0.25040522 1.8040003 4286345589
0.68185115 -0.22410493 1.8130001 4287266177
0.69393057 -0.22474067 1.8130001 4286872697
0.70876586 -0.22877666 1.8104286 4286806132
0.7210868 -0.23335096 1.8072145 4286739829
0.66406721 -0.21324663 1.8107499 4287266688
0.67826927 -0.21587932 1.8087144 4287266688
0.69148695 -0.21783467 1.8058001 4287003515
0.70377046 -0.22193809 1.8040003 4286806130
0.63575864 -0.19629048 1.8130001 4287265406
0.64933378 -0.19958375 1.8100001 4287463041
0.66064864 -0.20430852 1.8065717 4287266434
0.67372179 -0.20717737 1.8040001 4287202177
0.60556012 -0.1806614 1.8130001 4287001716
0.6191991 -0.18508586 1.807273 4286804852
0.63467807 -0.18771698 1.8073161 4287068280
0.64557099 -0.18946449 1.8040001 4287397759
0.57651818 -0.16714029 1.8100001 4286869877
0.58914989 -0.16901387 1.8085001 4286804080
0.60123646 -0.17388088 1.8064002 4287001970
0.63734716 -0.17871025 1.8040001 4287134587
0.54834187 -0.15099268 1.8130001 4287000950
0.55875957 -0.15527721 1.8100001 4287000686
0.57190305 -0.16167001 1.806 4287066227
0.58357596 -0.16289519 1.8040001 4287000432
0.51734859 -0.1358934 1.8130001 4287263858
0.52997547 -0.13854821 1.8082002 4287198067
0.54299843 -0.14412563 1.8065717 4287066222
0.55510885 -0.14708012 1.8040003 4287066223
0.49112356 -0.11920475 1.8130001 4287329651
0.49982622 -0.12324063 1.8100001 4287329388
0.51159304 -0.12823899 1.8059288 4287329655
0.52506018 -0.13126506 1.8040001 4287460730
0.45933563 -0.10648958 1.8130001 4287264371
0.4700506 -0.10840198 1.808154 4287526770
0.4837943 -0.11163444 1.8070003 4287658357
0.49659309 -0.11624074 1.804 4287329132
0.44284213 -0.09301804 1.812 4287789433
0.45349437 -0.097877495 1.8079376 4287592052
0.46520114 -0.10296888 1.8070002 4287329137
0.41038221 -0.075973161 1.8130001 4288315001
0.42489594 -0.081540324 1.8085002 4287987070
0.4375807 -0.086145513 1.8085002 4287789693
0.38368034 -0.063257992 1.8130001 4287920250
0.39405668 -0.066969067 1.8079376 4287591544
0.40961021 -0.072433002 1.8040001 4288183679
0.35280889 -0.046682499 1.8112001 4287854457
0.36464995 -0.051370997 1.8085001 4287722876
0.37810653 -0.057237949 1.808 4287788922
0.38905066 -0.058515746 1.8040001 4287789180
0.30993235 -0.030198537 1.8130001 4288513167
0.33642676 -0.03429291 1.8095386 4288249997
0.3476091 -0.038870864 1.8067695 4287921540
0.29313016 -0.018845705 1.813 4288711071
0.30531839 -0.022085594 1.8088461 4288382109
0.32056248 -0.022074062 1.8081539 4287398061
0.33002499 -0.025875986 1.8070002 4288184224
0.26383984 -0.0015893966 1.8130001 4284385020
0.2764971 -0.0051191971 1.8115 4284384748
0.2903116 -0.0093435608 1.8085001 4285105119
0.30459818 -0.012968356 1.8040001 4284515298
0.23999889 0.01430457 1.8130001 4283009023
0.26092595 0.005562888 1.8129998 4282746878
0.27401391 0.0043090042 1.8097858 4282681342
0.15099268 0.058807675 1.8130001 4289304736
0.14330843 0.069466569 1.8113126 4288843418
0.15127264 0.068752877 1.8100001 4287204781
0.11463609 0.086694263 1.8112001 4289170830
0.12625155 0.0818431 1.8088462 4289367957
0.13978824 0.078171484 1.8064548 4288909212
0.15553127 0.079665415 1.8103001 4283994356
0.071522847 0.10331079 1.8130001 4289236626
0.081765629 0.10189798 1.813 4289236115
0.097674005 0.098725729 1.8100001 4289235858
0.11106285 0.094157673 1.8082002 4289367439
0.057748079 0.11496636 1.8130001 4289499803
0.067395106 0.11274613 1.8089502 4289236629
0.080483876 0.10920061 1.805286 4289367188
0.092518143 0.1067517 1.8040001 4289038739
0.0242383 0.12913847 1.813 4290093224
0.036800619 0.12709667 1.8087372 4289961891
0.051893249 0.12399948 1.8066474 4289697953
0.06167876 0.12177601 1.8040001 4289171353
-0.017483363 0.14781389 1.8130001 4289501849
-0.0079375152 0.14544198 1.8111999 4289566876
0.00856499 0.14263234 1.8098501 4289962150
0.021833787 0.13844247 1.8088462 4289962150
0.034115355 0.13578364 1.804 4289830818
0.045863692 0.13442807 1.8040001 4290092968
-0.03442027 0.16149837 1.8119998 4289566873
-0.022190897 0.156904 1.8079376 4289697947
-0.0068562641 0.15511343 1.8055005 4289632160
0.0047445195 0.15340614 1.8040001 4289895843
-0.06167876 0.17871025 1.8040001 4289697681
-0.051162377 0.17529497 1.8096249 4289566357
-0.03742671 0.17007612 1.8068128 4289500568
-0.026885614 0.1660582 1.8040001 4289632152
-0.079469837 0.18818457 1.813 4289039758
-0.068288274 0.18545985 1.8062502 4289105037
-0.056143485 0.18266402 1.8040001 4289631119
-0.11920475 0.20662156 1.8130001 4288841356
-0.11035138 0.20515427 1.8084999 4288841607
-0.096339121 0.20109849 1.8077897 4288841353
-0.082695097 0.1992791 1.8070003 4289038734
-0.073540062 0.19689757 1.8040001 4288973200
-0.13634884 0.22195928 1.8085001 4289302939
-0.12629355 0.21681978 1.8072146 4289302931
-0.11343715 0.21264076 1.8040001 4289367951
-0.10279793 0.21034038 1.8040001 4289433235
-0.17045717 0.23556454 1.8115 4289040016
-0.15503454 0.23254254 1.8097858 4289171601
-0.1426433 0.22776525 1.8078574 4289302933
-0.19762771 0.24981019 1.8117143 4288776071
-0.18628597 0.24520998 1.8085003 4288907916
-0.17339197 0.24147762 1.8062501 4289171346
-0.15984826 0.24078512 1.8052857 4289302675
-0.21502028 0.26440817 1.8091428 4288644999
-0.20430967 0.2567952 1.8065714 4288710280
-0.26860803 0.28132319 1.8130001 4289040526
-0.25952464 0.28084466 1.808091 4288646026
-0.24535061 0.27705178 1.8085002 4288710790
-0.23082215 0.27373675 1.808154 4288710538
-0.22124934 0.26982775 1.8070002 4288776075
-0.28768077 0.29615757 1.8130001 4288711818
-0.27566966 0.28992462 1.8072145 4288777616
-0.26490235 0.28704345 1.8040001 4288712073
-0.31946874 0.30993235 1.8130001 4288316291
-0.30440804 0.30757234 1.8085003 4288579466
-0.29136214 0.30244058 1.8062502 4288712076
-0.28203538 0.29995909 1.8040003 4288973965
-0.34685516 0.3262127 1.8107501 4288119426
-0.33552125 0.32188869 1.8098235 4288184961
-0.32013196 0.31996214 1.8092108 4288185474
-0.30902642 0.31725025 1.8040001 4288382854
-0.37732813 0.33920738 1.8117143 4288119681
-0.36424905 0.33480078 1.8099999 4288185474
-0.35147721 0.3318224 1.8076 4288251014
-0.40847492 0.35443544 1.8130001 4288054658
-0.39392623 0.35266837 1.8097858 4287923068
-0.38171667 0.34686518 1.8067001 4287988601
-0.44979924 0.37032941 1.8130001 4287989123
-0.43920326 0.36979961 1.8130001 4287660671
-0.42405966 0.36751184 1.8092943 4287922814
-0.41039374 0.36139041 1.8074615 4287988607
-0.39973223 0.35853943 1.8070002 4287922816
-0.46433088 0.38304457 1.813 4287858308
-0.45372424 0.37836 1.8096249 4287661187
-0.44116089 0.37458682 1.808 4287595389
-0.4296574 0.37416264 1.8085001 4287922813
-0.50940162 0.40132266 1.8130001 4287332220
-0.49826479 0.39774516 1.8117143 4287266171
-0.48458341 0.39626354 1.8092105 4287726469
-0.46904773 0.39549133 1.8090626 4287661189
-0.45916411 0.38852349 1.8040003 4287792002
-0.5403949 0.41483253 1.8130001 4287004024
-0.52813101 0.41281894 1.8100001 4287069304
-0.51384765 0.40966839 1.8082861 4287266426
-0.49817461 0.40574431 1.804 4287201146
-0.48295718 0.40457791 1.8062502 4287660927
-0.4728705 0.40328419 1.8040003 4287595392
-0.55560768 0.42936417 1.813 4286608751
-0.5432294 0.42530251 1.8095002 4286937977
-0.53209168 0.42181739 1.8055001 4287134582
-0.58330858 0.44662046 1.8130001 4286542448
-0.57266158 0.44192097 1.8123571 4286674034
